ply                 
format ascii 1.0    
element vertex 950
property float x    
property float y    
property float z    
property uchar red  
property uchar green
property uchar blue 
end_header          
0.552586 0.43785 2.75803 32 28 29 
0.552745 0.438013 2.75788 32 28 29 
0.480507 0.499669 2.74406 183 136 116 
0.365334 0.368177 2.82971 39 31 42 
0.245656 1.04094 2.69845 79 37 39 
0.441371 0.375933 2.7988 166 125 105 
0.373047 0.306875 2.84814 34 29 36 
0.50519 1.21895 2.54475 30 28 33 
0.384801 0.389781 2.81317 182 141 121 
0.58307 0.716228 2.67063 162 124 103 
0.276302 0.964995 2.68817 233 205 219 
0.473907 0.785833 2.6717 129 84 65 
0.473745 0.822828 2.66145 17 15 18 
0.474122 0.822275 2.66159 15 13 16 
0.485287 1.31069 2.49015 119 71 71 
0.617477 0.791443 2.65869 151 110 88 
0.448361 0.356889 2.8115 29 27 30 
0.516378 0.715919 2.6768 135 96 79 
0.536736 0.740993 2.66905 150 112 91 
0.489821 0.740529 2.6757 61 48 42 
0.49578 0.747323 2.67043 14 10 11 
0.436971 0.38609 2.78998 113 86 75 
0.463021 0.770747 2.67011 139 98 78 
0.404467 0.358265 2.81857 139 107 94 
0.323011 0.956445 2.6697 38 28 36 
0.31689 1.00809 2.64078 53 45 58 
0.548108 0.700803 2.67294 22 17 23 
0.35802 1.40344 2.52481 34 27 34 
0.398038 0.713294 2.69053 194 157 151 
0.516416 0.493318 2.74336 24 24 26 
0.586225 0.729596 2.66789 27 18 21 
0.373842 1.26587 2.5745 90 79 96 
0.252319 1.04585 2.68948 202 134 149 
0.585702 0.729466 2.6669 27 18 21 
0.384644 1.22807 2.5946 75 66 83 
0.357606 1.40431 2.52609 32 25 32 
0.413993 0.415638 2.79739 36 34 45 
0.316179 0.909038 2.68968 28 21 28 
0.281157 0.990723 2.68069 241 209 224 
0.547775 0.663525 2.68418 145 99 83 
0.422846 0.736759 2.68832 31 26 33 
0.569404 0.726927 2.67053 28 24 25 
0.503948 0.143753 2.89587 37 26 32 
0.439936 0.383245 2.79601 173 130 113 
0.374343 0.283723 2.86484 163 84 87 
0.604383 0.761729 2.66453 26 25 31 
0.424601 1.26405 2.53731 97 42 45 
0.652065 0.751167 2.66432 33 28 34 
0.599559 0.475263 2.74771 33 28 32 
0.357485 0.393053 2.82597 177 128 113 
0.414572 0.354205 2.81625 42 37 41 
0.393474 0.415654 2.79919 170 128 116 
0.396241 0.43005 2.79278 184 135 121 
0.463918 0.247175 2.83996 51 34 42 
0.604978 0.828056 2.65526 27 24 31 
0.576156 0.666753 2.68174 152 111 91 
0.747066 0.287344 2.81495 29 18 24 
0.55522 0.230093 2.83472 40 23 29 
0.290438 0.972586 2.67645 107 68 73 
0.634853 0.740432 2.6665 37 31 33 
0.580112 0.160414 2.86534 30 21 26 
0.490966 0.440186 2.76227 28 25 34 
0.372239 1.28577 2.56388 203 152 169 
0.482102 0.71245 2.67905 18 13 17 
0.647845 0.738631 2.66678 134 101 86 
0.486395 1.31894 2.47947 33 18 21 
0.290056 0.973242 2.67845 105 68 75 
0.529661 0.723142 2.67204 22 13 18 
0.316634 0.937607 2.67756 154 84 82 
0.333131 1.1723 2.63642 51 45 59 
0.4026 1.50994 2.44181 38 21 27 
0.586835 0.656767 2.68433 61 45 32 
0.313646 1.565 2.93457 186 146 134 
0.483522 0.322272 2.81153 138 90 80 
0.497671 1.30003 2.48849 35 26 31 
0.457487 0.745124 2.6747 88 63 58 
0.417288 1.4144 2.51418 28 22 26 
0.380061 0.501821 2.76976 164 128 116 
0.277957 1.01067 2.67073 229 196 213 
0.458329 0.320445 2.81698 29 24 30 
0.427057 0.398839 2.79813 153 114 97 
0.418117 1.4136 2.51213 24 19 23 
0.584548 0.435222 2.75632 146 99 79 
0.521945 0.443741 2.75872 143 103 91 
0.741124 0.671819 2.69075 165 127 106 
0.395457 0.408669 2.80386 162 125 109 
0.390422 0.42472 2.79604 53 41 51 
0.374555 0.430427 2.79847 180 137 121 
0.62733 0.694786 2.67441 37 34 41 
0.372585 0.432534 2.80554 183 131 118 
0.459172 0.319134 2.81922 29 24 30 
0.382908 0.395527 2.81032 183 140 123 
0.810826 0.534838 2.75129 135 109 96 
0.466709 0.520401 2.73749 33 28 34 
0.699739 0.666202 2.6874 63 53 54 
0.383828 0.397973 2.81138 180 139 121 
0.55854 0.742764 2.66692 26 20 22 
0.317465 0.894181 2.69788 136 70 72 
0.264211 1.1785 2.64246 205 171 187 
0.628018 0.678175 2.67975 117 93 83 
0.449546 0.416606 2.77317 29 28 34 
0.457968 0.792012 2.66707 132 89 72 
0.403757 0.486921 2.76822 65 49 59 
0.736234 0.698961 2.68331 157 121 97 
0.6834 0.74447 2.66804 38 37 43 
0.381754 0.417685 2.80069 45 38 45 
0.303432 1.23417 2.61087 121 71 72 
0.640021 0.662405 2.68616 144 106 85 
0.498618 0.337295 2.80572 31 25 37 
0.740665 0.674912 2.69004 164 126 107 
0.384844 0.401421 2.80972 172 131 113 
0.494438 0.376 2.78897 105 75 73 
0.670193 0.159718 2.8695 29 23 27 
0.698217 0.507177 2.73425 43 27 27 
0.707748 0.688459 2.67569 154 117 101 
0.444827 0.745964 2.67605 22 16 18 
0.327325 1.1813 2.63056 146 87 93 
0.292082 1.02559 2.65782 234 207 224 
0.558397 0.743716 2.66693 27 21 23 
0.442252 1.25596 2.53382 192 120 131 
0.453105 0.345747 2.81198 29 27 32 
0.49706 0.724401 2.67513 74 58 58 
0.434324 0.390677 2.79651 70 44 43 
0.407105 0.420815 2.79914 34 32 43 
0.370988 1.24971 2.58629 188 127 135 
0.761019 0.649982 2.69945 149 112 86 
0.709967 0.691314 2.68637 159 122 104 
0.48371 0.395685 2.78106 122 83 84 
0.317281 0.892387 2.69839 137 71 72 
0.387106 0.772392 2.67891 78 62 72 
0.542699 0.492993 2.73898 117 72 67 
0.405443 0.421011 2.7971 38 36 47 
0.659753 0.785823 2.65578 41 36 43 
0.435483 1.27486 2.51735 192 107 112 
0.510543 1.45929 2.47831 43 30 40 
0.247529 1.07448 2.69381 50 14 14 
0.435945 0.744051 2.67698 70 58 62 
0.388397 0.228424 2.88281 154 79 76 
0.348612 1.22799 2.6039 80 47 58 
0.381378 0.429713 2.79778 182 132 123 
0.589125 0.74396 2.66567 27 25 30 
0.500864 1.50211 2.44316 37 26 34 
0.584353 0.139749 2.87521 135 68 62 
0.599868 0.517527 2.73326 151 106 87 
0.495428 0.376223 2.78921 108 78 76 
0.403166 0.768892 2.67563 35 22 31 
0.433029 1.27459 2.51771 192 110 114 
0.589001 0.741747 2.66638 26 23 30 
0.592294 0.646823 2.68599 159 115 88 
0.693081 0.649545 2.69253 142 109 92 
0.464482 0.735778 2.67465 16 12 11 
0.519758 0.739986 2.67524 20 15 19 
0.442131 0.681232 2.69064 170 129 123 
0.403028 1.45012 2.48798 35 28 36 
0.600634 0.724245 2.66949 124 103 98 
0.686215 0.673798 2.68254 153 118 99 
0.597515 0.667584 2.68235 153 113 87 
0.44166 0.36218 2.80722 35 30 36 
0.407755 1.45366 2.4885 43 36 44 
0.493357 0.362396 2.79588 31 26 33 
0.537843 0.717465 2.67293 75 61 61 
0.389055 0.426899 2.79541 70 45 49 
0.746904 0.653624 2.70085 163 121 97 
0.537359 0.717615 2.67322 70 58 58 
0.466092 0.522856 2.73846 41 30 38 
0.446714 0.709523 2.67994 111 82 78 
0.60078 0.724467 2.66947 124 103 98 
0.601633 0.641368 2.69139 164 117 91 
0.485032 0.385438 2.7863 28 25 36 
0.752922 0.652126 2.70473 163 123 98 
0.286152 1.2805 2.63318 110 97 123 
0.310976 1.03553 2.63812 112 65 73 
0.756103 0.171995 2.84279 46 31 36 
0.7572 0.306351 2.8117 134 84 77 
0.300264 0.964637 2.66951 189 132 139 
0.448586 0.337187 2.81142 149 111 98 
0.595788 0.645102 2.68787 159 116 84 
0.443004 0.390424 2.79502 65 39 40 
0.32947 1.1865 2.62816 143 82 87 
0.496855 0.156129 2.88988 148 73 68 
0.486995 0.669807 2.68782 129 91 80 
0.538033 0.667585 2.68469 67 43 41 
0.554939 0.467314 2.74722 119 79 67 
0.374636 0.819718 2.70534 157 67 69 
0.429747 1.27448 2.52023 194 114 117 
0.473904 0.510344 2.74394 178 136 114 
0.43614 1.25467 2.53724 233 187 200 
0.300716 0.395789 2.85716 55 42 51 
0.381735 1.21674 2.60124 171 99 110 
0.469614 0.672206 2.69031 130 91 92 
0.469261 1.31677 2.48191 151 76 73 
0.692756 0.698731 2.67961 100 73 66 
0.681214 0.69691 2.67554 112 87 80 
0.556823 0.408803 2.77062 128 89 72 
0.35669 0.501514 2.77952 154 110 101 
0.356662 0.501886 2.77963 154 110 101 
0.670697 0.413307 2.76425 38 23 20 
0.316953 0.878197 2.70706 147 75 78 
0.736081 0.704549 2.68112 151 119 98 
0.735599 0.715418 2.67767 56 37 39 
0.579647 0.170389 2.86178 32 19 26 
0.444578 1.26074 2.52526 212 136 148 
0.320278 1.00352 2.64847 143 85 84 
0.660378 0.677247 2.67791 136 99 83 
0.368315 0.506252 2.77339 160 113 107 
0.244403 1.11652 2.68481 210 166 189 
0.650814 0.985107 2.62111 153 78 82 
0.798547 0.509071 2.75805 147 109 88 
0.699961 0.70908 2.67313 148 112 96 
0.384515 1.27874 2.54812 185 114 130 
0.640694 0.751381 2.66528 104 81 73 
0.354964 0.96966 2.65875 47 21 24 
0.443447 0.364704 2.80257 28 23 27 
0.46915 0.672996 2.68973 133 102 99 
0.683367 0.428531 2.7528 143 97 74 
0.419645 1.25343 2.55131 212 151 158 
0.517528 0.73118 2.67121 95 78 70 
0.444183 0.272861 2.84652 175 91 91 
0.46638 0.299827 2.82786 33 23 31 
0.473662 0.510235 2.74484 182 140 118 
0.501535 1.20138 2.55297 39 22 32 
0.4136 0.774403 2.67549 24 17 24 
0.495313 0.518728 2.73545 36 31 37 
0.478285 1.23784 2.53332 150 74 74 
0.561293 0.206549 2.84583 139 68 64 
0.693736 0.780979 2.65888 126 95 90 
0.339827 0.983889 2.65259 152 75 69 
0.515769 1.44461 2.48831 129 64 70 
0.487306 0.362041 2.79648 29 26 33 
0.5528 0.485108 2.73863 28 22 22 
0.318686 1.03305 2.63223 105 64 72 
0.292819 0.975283 2.66616 97 51 53 
0.48682 0.805198 2.66311 130 89 71 
0.618419 0.245655 2.82497 82 31 30 
0.394841 0.782842 2.67635 177 130 114 
0.596011 0.685989 2.67563 80 64 64 
0.559272 0.6723 2.68082 30 24 28 
0.321531 1.05077 2.63971 185 137 149 
0.37083 0.485198 2.77813 92 75 85 
0.472887 0.836629 2.65578 28 19 22 
0.591487 0.700188 2.67257 67 51 54 
0.485348 0.521263 2.74272 34 29 35 
0.262256 0.976843 2.68875 122 65 72 
0.319326 1.00235 2.64855 145 83 84 
0.344247 1.2395 2.59948 164 109 112 
0.261322 0.924231 2.71149 212 194 210 
0.498104 0.801186 2.66323 122 85 69 
0.274586 1.16158 2.6586 198 160 175 
0.351043 0.982256 2.65352 57 22 26 
0.474941 0.40433 2.78417 28 25 32 
0.481576 0.384397 2.78703 32 30 35 
0.552955 0.485217 2.73849 28 22 22 
0.352846 0.945519 2.6706 156 85 79 
0.316472 1.16151 2.64144 150 79 83 
0.411755 0.779628 2.67423 29 20 23 
0.324853 0.941335 2.67499 136 76 76 
0.516099 1.44424 2.48896 132 68 69 
0.418832 1.26605 2.54004 189 108 123 
0.426722 1.25366 2.54481 255 209 219 
0.644541 0.498273 2.73575 137 92 73 
0.712794 0.711644 2.67336 48 39 42 
0.737766 0.737309 2.67157 149 111 98 
0.599528 0.731231 2.66974 29 24 28 
0.256271 1.12951 2.66742 190 137 153 
0.479828 0.809688 2.662 16 11 17 
0.395581 1.25025 2.57618 212 156 165 
0.358627 1.02838 2.6307 146 67 63 
0.401425 1.52438 2.4321 148 81 90 
0.472438 0.884794 2.66168 232 167 175 
0.700444 0.652289 2.68932 129 97 86 
0.601702 0.712737 2.66797 31 29 32 
0.310525 1.0314 2.63966 124 83 91 
0.392549 1.29559 2.53538 207 130 136 
0.479906 1.24125 2.53159 161 80 79 
0.471704 0.73049 2.67539 63 51 55 
0.504891 0.728135 2.67432 18 9 14 
0.723564 0.737812 2.66585 108 84 80 
0.573405 0.389146 2.77475 23 21 26 
0.563206 0.191933 2.85049 141 67 68 
0.413502 1.5004 2.441 110 49 48 
0.240502 1.2021 2.65061 155 133 145 
0.729317 0.744184 2.66332 109 85 81 
0.366498 0.956696 2.66425 142 77 75 
0.237805 1.06953 2.70322 162 107 126 
0.321128 1.05145 2.63756 197 151 162 
0.610646 0.725333 2.66975 115 96 89 
0.559256 0.660681 2.68414 35 16 18 
0.662622 0.257141 2.82434 142 80 69 
0.61107 0.724964 2.66892 118 99 93 
0.559279 0.660769 2.68409 37 18 20 
0.687987 0.655236 2.68935 61 43 41 
0.815653 0.526762 2.75319 58 39 41 
0.23518 1.06239 2.6938 159 106 126 
0.436491 1.28768 2.50824 164 93 99 
0.414696 0.361942 2.81604 35 30 36 
0.738037 1.02895 2.61481 87 55 60 
0.687829 0.655083 2.68929 54 39 36 
0.518156 1.3072 2.48776 158 88 90 
0.364893 1.24983 2.5875 181 120 127 
0.785718 0.330945 2.80956 135 88 78 
0.492112 0.713966 2.67799 21 16 20 
0.412133 1.71409 2.36963 72 22 15 
0.469556 0.728505 2.67624 38 27 31 
0.486246 1.22832 2.53504 32 25 33 
0.41984 0.385585 2.80337 152 119 104 
0.453195 1.27433 2.51807 184 105 108 
0.36166 0.972227 2.6566 122 62 61 
0.314891 1.0356 2.64042 100 60 68 
0.82904 0.704091 2.71 147 73 70 
0.585031 0.679334 2.67896 76 57 51 
0.340707 1.19391 2.62539 150 89 97 
0.378244 1.02803 2.6295 135 67 66 
0.632994 0.251762 2.82512 148 92 79 
0.538648 1.32436 2.47914 81 40 48 
0.570071 0.678565 2.67995 139 100 85 
0.599963 0.731348 2.66947 29 24 28 
0.471916 0.528074 2.7334 198 152 136 
0.383793 0.962121 2.6618 96 51 54 
0.317795 0.998857 2.64764 152 84 85 
0.364583 0.985249 2.65118 57 22 26 
0.394577 0.345357 2.82652 170 80 89 
0.582226 0.456272 2.75564 125 86 69 
0.366236 1.67968 2.39058 167 96 102 
0.725567 0.683714 2.68201 147 114 99 
0.829902 0.434697 2.78673 87 35 37 
0.730767 0.687309 2.68736 148 115 98 
0.330796 1.00944 2.64094 145 73 74 
0.532701 0.181104 2.86424 155 74 73 
0.368019 0.484659 2.78099 59 43 54 
0.660103 0.649063 2.69027 113 81 66 
0.384025 0.962739 2.66143 103 53 52 
0.370543 0.972532 2.65789 36 15 20 
0.579817 0.795386 2.66013 145 80 76 
0.38275 1.20909 2.60645 183 110 119 
0.384252 0.963108 2.66075 104 54 53 
0.453099 0.73172 2.67695 116 85 80 
0.335795 0.94919 2.66997 102 64 61 
0.569499 1.50639 2.44725 59 26 33 
0.735207 0.725431 2.67476 71 49 52 
0.577813 0.460231 2.75129 131 93 74 
0.396037 0.990464 2.64974 147 69 67 
0.360633 0.499961 2.78736 156 116 104 
0.365083 0.98511 2.6526 57 22 26 
0.558676 0.674589 2.67973 24 18 22 
0.472334 0.562997 2.72741 171 80 89 
0.31824 1.03167 2.63004 105 64 72 
0.427787 0.350644 2.81505 118 85 76 
0.683471 0.279838 2.81423 108 30 30 
0.357648 1.20733 2.61171 72 42 54 
0.390491 1.03378 2.62982 137 69 68 
0.576858 0.653146 2.68609 161 108 90 
0.475037 1.31445 2.48161 30 8 11 
0.421365 1.43806 2.49653 97 50 58 
0.380354 1.23907 2.58977 100 85 106 
0.520542 0.241757 2.84129 149 71 69 
0.347794 1.27308 2.57941 43 31 45 
0.68583 0.759403 2.66341 36 35 41 
0.733201 0.667882 2.69084 111 86 79 
0.419601 0.499902 2.75999 109 56 64 
0.762536 0.211916 2.85025 112 56 55 
0.562624 0.673997 2.68268 24 15 16 
0.789835 0.538225 2.74099 38 32 32 
0.249364 1.10136 2.68658 57 34 42 
0.418802 0.497974 2.75823 105 56 62 
0.404201 0.301132 2.84276 169 116 102 
0.75326 0.248456 2.83395 34 21 30 
0.503017 0.735569 2.67151 70 56 55 
0.467511 0.354868 2.80237 100 82 82 
0.713115 0.272017 2.82122 131 69 58 
0.409857 1.27307 2.54656 202 131 135 
0.400844 1.51493 2.43751 133 74 76 
0.309382 0.954059 2.67264 43 37 47 
0.381795 1.03418 2.62946 146 76 76 
0.471244 0.52909 2.73697 174 133 115 
0.396988 0.740662 2.68543 150 120 118 
0.559056 0.737293 2.67055 30 24 26 
0.625825 0.757196 2.66585 31 29 34 
0.409796 0.289268 2.84608 153 75 71 
0.358087 0.430187 2.81141 172 129 112 
0.515512 0.156249 2.88001 161 87 84 
0.323963 0.860515 2.71065 60 36 49 
0.710303 0.696941 2.67367 105 76 68 
0.329311 1.04411 2.62616 198 134 134 
0.564035 0.70769 2.67435 30 25 31 
0.415302 0.77027 2.67436 19 12 19 
0.563494 0.70654 2.67468 26 21 27 
0.70614 0.642054 2.68689 117 87 76 
0.406609 1.27507 2.54382 202 132 134 
0.513032 0.729463 2.67399 25 15 16 
0.323182 0.981975 2.65665 150 80 78 
0.420048 1.52175 2.43042 66 24 25 
0.42043 0.373472 2.80714 141 108 91 
0.40059 1.51585 2.43736 122 56 57 
0.411007 1.46449 2.47819 131 66 70 
0.771438 0.319 2.80879 125 76 69 
0.35158 0.517847 2.78278 133 51 65 
0.315136 0.996148 2.65184 157 85 86 
0.46838 0.679793 2.68709 105 84 81 
0.472682 0.748751 2.67531 13 11 12 
0.361438 0.947209 2.67026 84 39 42 
0.622881 0.757009 2.66512 32 31 36 
0.454971 1.39846 2.52136 117 48 51 
0.645358 0.214388 2.83931 60 19 25 
0.498315 0.267043 2.83301 106 29 37 
0.474388 0.752654 2.6736 14 10 11 
0.494927 0.525244 2.73736 40 31 32 
0.442122 0.716355 2.68165 144 111 102 
0.760704 0.312102 2.8112 142 92 81 
0.368523 0.496585 2.80352 142 113 109 
0.603385 1.47016 2.48272 96 55 63 
0.751571 0.256951 2.82908 37 22 27 
0.35 1.24339 2.59468 104 73 81 
0.347551 0.510832 2.78059 114 37 53 
0.501988 0.216215 2.85592 92 36 37 
0.268736 1.03911 2.66603 215 156 174 
0.382935 1.03423 2.62874 145 77 76 
0.327415 1.02694 2.63281 133 86 94 
0.468283 0.680443 2.68775 105 84 81 
0.664885 0.776727 2.66246 95 77 73 
0.401438 0.503107 2.76463 106 56 65 
0.790333 0.521684 2.74557 66 52 49 
0.731507 1.02566 2.61611 127 74 82 
0.338826 1.17576 2.63059 53 39 52 
0.341452 0.795382 2.70748 143 60 54 
0.440742 0.495741 2.75539 198 145 131 
0.478107 0.751912 2.66985 13 11 12 
0.470406 0.849952 2.65822 182 102 103 
0.376115 1.36576 2.54019 106 55 60 
0.281588 1.03454 2.65243 214 171 191 
0.411505 0.497885 2.7636 136 76 86 
0.658224 0.360754 2.78174 134 81 73 
0.333689 1.32166 2.56183 49 19 27 
0.393125 1.51691 2.43739 76 20 23 
0.455183 1.26248 2.52362 152 81 85 
0.693882 0.250864 2.82948 97 39 38 
0.7055 0.373177 2.7789 130 64 65 
0.289995 0.879924 2.67839 169 105 105 
0.620322 0.150201 2.87095 138 77 74 
0.277176 1.25332 2.64083 187 167 178 
0.539204 0.705735 2.67523 21 16 22 
0.601694 0.67862 2.67798 72 54 50 
0.38062 1.26013 2.57543 90 79 96 
0.393093 1.22179 2.59398 161 111 123 
0.665789 0.675892 2.67961 154 113 93 
0.405139 0.75225 2.67685 32 25 32 
0.463518 0.882041 2.6689 219 147 158 
0.355923 0.954821 2.6669 135 75 75 
0.304617 1.16332 2.64192 83 42 48 
0.695844 0.272825 2.8141 146 88 77 
0.349421 1.18558 2.62317 159 92 101 
0.5239 0.741718 2.67145 18 6 6 
0.483561 0.741224 2.67785 72 58 49 
0.540189 0.704727 2.67571 20 18 23 
0.527019 0.65954 2.6871 108 33 37 
0.600686 0.740761 2.66765 95 80 73 
0.383615 1.19843 2.60952 181 104 112 
0.557151 0.733637 2.66941 28 22 24 
0.679476 0.778993 2.66055 39 34 41 
0.285909 0.811742 2.73577 118 46 50 
0.608318 0.731618 2.66301 33 29 30 
0.458382 1.67703 2.39652 70 24 26 
0.825461 0.715659 2.70491 73 36 43 
0.595006 0.850344 2.65179 60 33 42 
0.413767 1.74747 2.38755 109 54 49 
0.626729 0.752108 2.66422 27 25 30 
0.354973 0.433811 2.81265 191 139 125 
0.485017 0.255725 2.84092 156 76 75 
0.665819 0.193871 2.85069 113 53 53 
0.601972 0.740139 2.673 102 84 74 
0.43924 0.817325 2.66742 168 118 107 
0.698501 0.656931 2.68957 88 67 64 
0.360867 1.32662 2.55727 91 51 60 
0.415547 1.25937 2.55179 218 166 178 
0.847015 0.511117 2.77283 166 129 103 
0.663893 0.775784 2.66027 90 75 72 
0.712947 0.696088 2.68019 105 76 68 
0.819991 0.714784 2.69867 90 43 51 
0.809081 0.348044 2.80742 128 73 66 
0.370504 1.36975 2.53922 57 26 34 
0.514009 0.179857 2.868 152 77 74 
0.528599 0.784469 2.66381 143 77 78 
0.549932 0.731688 2.67128 101 76 71 
0.373923 1.34526 2.5485 44 14 22 
0.341171 1.02987 2.62967 147 83 84 
0.294646 0.77125 2.72424 230 198 219 
0.526542 0.658586 2.6873 109 37 41 
0.378431 1.29266 2.55431 204 138 152 
0.35365 1.22712 2.60483 174 118 121 
0.422028 1.38705 2.52718 82 26 29 
0.560961 0.176251 2.86727 137 63 64 
0.351899 0.965214 2.66193 126 62 63 
0.801481 0.525614 2.75804 46 36 35 
0.540102 0.137985 2.88914 138 78 77 
0.465474 0.365496 2.79613 114 95 91 
0.528553 0.142873 2.8899 107 56 55 
0.33973 1.04158 2.62721 87 43 44 
0.356729 1.20081 2.61355 84 48 60 
0.400713 1.4413 2.49523 106 66 74 
0.453655 0.381603 2.79712 69 48 45 
0.432958 0.81483 2.66845 180 124 111 
0.374916 0.950958 2.66639 139 72 64 
0.336792 1.21262 2.61427 61 50 64 
0.790105 0.521735 2.74724 82 67 64 
0.397107 0.760279 2.67692 142 104 101 
0.408496 0.223892 2.87978 82 43 48 
0.620667 0.160403 2.86242 109 48 45 
0.258205 1.11281 2.66507 96 37 43 
0.428368 1.50796 2.44027 114 56 55 
0.593047 1.47355 2.47517 122 70 72 
0.61231 0.772825 2.66081 29 20 23 
0.679387 0.668197 2.68046 105 76 68 
0.494141 1.46708 2.47401 141 78 87 
0.588891 0.615993 2.69766 60 35 28 
0.613211 0.183803 2.85349 109 44 42 
0.505699 1.49296 2.45101 112 53 57 
0.667902 0.62979 2.69231 158 116 94 
0.654663 0.76521 2.66489 130 110 101 
0.461015 0.360589 2.80169 47 31 34 
0.607159 0.72054 2.66745 24 22 27 
0.67027 0.633721 2.69357 159 117 95 
0.622538 0.654981 2.68557 161 119 97 
0.384435 1.41669 2.51271 82 41 47 
0.553696 0.730103 2.66887 91 71 70 
0.615225 0.66875 2.67934 127 99 88 
0.331935 1.04075 2.62989 85 36 39 
0.344101 1.13442 2.63609 31 27 26 
0.627296 0.664409 2.68086 81 65 52 
0.423175 1.42662 2.50394 46 31 38 
0.316928 0.974458 2.66189 68 36 37 
0.521697 0.65513 2.68908 119 29 31 
0.466745 0.502412 2.74492 170 73 80 
0.612074 0.773056 2.65991 29 20 23 
0.522651 0.656284 2.68736 119 30 36 
0.406921 0.989659 2.64952 71 35 39 
0.589224 1.48839 2.46771 87 51 55 
0.39714 1.13332 2.62072 16 14 15 
0.512946 1.51167 2.43692 114 58 61 
0.44722 1.44538 2.49273 129 60 65 
0.430832 1.39386 2.52162 127 57 57 
0.657354 0.731062 2.66753 66 52 51 
0.62331 0.669796 2.67979 73 58 53 
0.65662 0.17553 2.85854 106 56 57 
0.751449 0.596057 2.71188 111 87 75 
0.568788 0.704058 2.6762 30 17 24 
0.528855 0.164335 2.88044 95 45 48 
0.352298 1.00234 2.64339 133 72 71 
0.482046 0.474932 2.75486 143 107 91 
0.667065 0.628026 2.69319 159 114 91 
0.594951 0.858745 2.65038 154 83 87 
0.611669 0.658341 2.68577 97 73 63 
0.329398 1.05754 2.62196 128 64 64 
0.570403 1.45982 2.48085 109 49 57 
0.465466 0.696838 2.684 103 75 72 
0.372975 0.985842 2.65003 124 53 51 
0.290718 0.967247 2.67349 89 59 71 
0.52408 1.43994 2.49305 131 65 67 
0.36523 0.351753 2.81972 159 74 81 
0.581151 0.618507 2.69839 143 92 75 
0.519746 0.787628 2.6634 59 36 30 
0.483245 0.773928 2.66796 144 102 78 
0.819381 0.381415 2.80203 144 96 86 
0.480041 0.802131 2.66413 144 101 85 
0.330061 0.983326 2.6544 95 45 44 
0.445126 1.28454 2.50609 161 80 87 
0.507607 0.814671 2.6609 137 45 46 
0.82554 0.280823 2.84253 109 61 61 
0.450732 0.270897 2.84191 122 56 58 
0.373665 1.35787 2.54342 46 16 24 
0.334618 0.510532 2.78944 136 69 76 
0.424252 0.791356 2.66803 107 74 67 
0.384597 1.37849 2.53385 132 66 70 
0.413653 1.74807 2.38734 116 57 53 
0.615654 0.807734 2.6471 126 92 82 
0.337891 1.0077 2.64064 154 84 82 
0.388663 1.67026 2.38917 89 41 39 
0.409468 1.4416 2.49524 36 29 37 
0.409378 0.764261 2.67669 74 62 64 
0.481031 0.869125 2.65683 196 116 117 
0.850493 0.447627 2.7906 144 98 82 
0.559537 0.441382 2.7796 32 28 29 
0.529891 1.14547 2.62092 22 17 23 
0.48932 0.505491 2.77345 183 136 116 
0.263002 1.43032 2.64327 64 59 66 
0.381765 0.420842 2.86113 40 39 47 
0.258943 1.06474 2.75776 79 37 39 
0.45085 0.38091 2.83236 166 125 105 
0.384669 0.313094 2.89385 34 29 36 
0.307893 1.08753 2.70915 223 175 191 
0.515654 1.23299 2.57633 30 28 33 
0.589812 0.721162 2.69018 162 124 103 
0.254102 1.33227 2.68082 73 70 81 
0.499847 1.32309 2.51458 138 73 77 
0.289518 0.986053 2.74407 233 205 219 
0.540325 1.02418 2.65627 33 25 36 
0.481841 0.79339 2.69766 129 84 65 
0.624088 0.796631 2.67721 151 110 88 
0.525281 0.72339 2.70451 135 96 79 
0.625676 0.993728 2.67098 160 85 82 
0.29637 0.824566 2.80047 138 62 64 
0.473393 0.953873 2.70772 30 15 20 
0.328413 0.926958 2.73874 30 23 30 
0.419707 1.32882 2.55051 226 194 209 
0.414235 0.187034 2.94426 48 33 38 
0.407638 0.892658 2.73688 28 16 20 
0.329277 1.02727 2.68946 53 45 58 
0.323656 1.55799 2.54156 81 54 63 
0.485679 0.421948 2.80666 139 92 86 
0.677825 0.958985 2.6665 35 26 31 
0.301816 1.18398 2.70255 45 33 45 
0.37078 1.43064 2.57114 34 27 34 
0.408608 0.723043 2.72847 194 157 151 
0.38641 1.28825 2.61968 90 79 96 
0.397628 0.256804 2.90611 35 26 31 
0.325502 1.72408 2.50343 50 39 45 
0.554686 0.668477 2.70518 145 99 83 
0.377697 1.52426 2.50884 126 74 86 
0.401871 0.966089 2.70875 33 23 24 
0.710966 1.29593 2.59113 155 128 121 
0.313094 1.40258 2.61022 64 59 81 
0.335404 0.282021 2.95084 50 35 40 
0.34404 1.23815 2.66349 54 43 57 
0.727108 1.1738 2.63101 41 36 43 
0.511923 0.144679 2.92266 37 26 32 
0.43216 1.76839 2.42524 29 14 17 
0.64488 1.0535 2.64758 172 119 129 
0.689596 0.888926 2.69164 41 19 22 
0.657349 0.75498 2.67873 33 28 34 
0.606838 0.479117 2.769 33 28 32 
0.473861 0.25129 2.87525 51 34 42 
0.392052 0.77628 2.72201 74 61 71 
0.748339 0.28721 2.81814 29 18 24 
0.419544 0.501581 2.80013 141 109 110 
0.562421 0.232263 2.85755 40 23 29 
0.425758 1.16071 2.71477 33 29 28 
0.75414 1.32924 2.70354 71 61 69 
0.333869 0.862063 2.76641 50 37 47 
0.548888 0.860953 2.68001 151 97 73 
0.3287 1.31968 2.63153 175 163 175 
0.67692 1.34753 2.56613 43 36 44 
0.646082 0.667831 2.69952 143 106 87 
0.842059 0.818957 2.70813 40 17 23 
0.783274 0.838544 2.70137 35 28 36 
0.275154 1.36748 2.64337 209 182 175 
0.491918 0.325813 2.83999 138 90 80 
0.429145 1.43607 2.55349 28 22 26 
0.263736 1.26302 2.69257 98 85 105 
0.655421 0.227516 2.84542 40 17 23 
0.252576 0.599618 2.89854 74 51 59 
0.232852 1.12806 2.77043 86 72 87 
0.57365 1.41807 2.53892 35 24 32 
0.369647 1.79464 2.45732 124 73 70 
0.703843 0.668465 2.69818 63 53 54 
0.718376 1.23152 2.60733 65 45 54 
0.749616 1.35201 2.65227 96 82 81 
0.284368 1.56016 2.58816 63 45 57 
0.473496 1.04786 2.67529 62 31 36 
0.260828 0.507715 2.92829 61 44 52 
0.315635 0.385044 2.91723 69 47 50 
0.654105 1.24187 2.59737 34 29 35 
0.300288 1.61963 2.57016 43 13 15 
0.796161 0.581732 2.73161 135 69 70 
0.673629 0.159867 2.87935 29 23 27 
0.701302 0.50831 2.74248 43 27 27 
0.453293 1.27234 2.56932 192 120 131 
0.408403 1.18894 2.75472 20 16 15 
0.761921 0.65009 2.70167 149 112 86 
0.550141 0.497004 2.7623 117 72 67 
0.320248 1.46035 2.5845 111 105 139 
0.52079 1.4765 2.50855 43 30 40 
0.77591 0.89867 2.67835 35 29 33 
0.551203 1.55816 2.47365 92 91 87 
0.603964 0.111452 2.91524 45 30 35 
0.510937 1.51943 2.4727 37 26 34 
0.626317 1.45819 2.5184 46 40 52 
0.536599 1.76594 2.43218 51 40 38 
0.604012 1.53921 2.4763 135 86 82 
0.76593 0.175013 2.86942 38 26 30 
0.452334 0.690314 2.72558 170 129 123 
0.519291 1.41583 2.54688 44 17 24 
0.279437 1.25551 2.4925 189 169 181 
0.396847 1.1825 2.66804 174 94 103 
0.340127 1.67368 2.48954 179 129 132 
0.385989 0.833033 2.74764 157 67 69 
0.579838 1.2824 2.54859 67 33 34 
0.296698 1.2137 2.64183 54 46 59 
0.683747 0.693107 2.65807 100 73 66 
0.56996 0.0825431 2.96075 97 65 68 
0.230058 1.02595 2.80077 94 77 95 
0.367812 0.510423 2.82316 154 110 101 
0.675016 0.414623 2.77615 38 23 20 
0.73828 0.716661 2.68431 56 37 39 
0.585948 0.17179 2.88145 32 19 26 
0.226021 0.846572 2.87347 125 84 92 
0.228228 0.962135 2.82108 105 74 89 
0.792664 1.1141 2.66062 101 68 75 
0.798635 0.509057 2.7583 147 109 88 
0.764619 1.00321 2.63561 62 42 51 
0.550197 1.65554 2.56668 23 22 18 
0.672418 1.17259 2.61835 143 63 66 
0.273567 0.422692 2.95922 62 46 49 
0.650455 1.59822 2.5335 75 33 35 
0.482667 0.848731 2.68842 28 19 22 
0.864629 0.509863 2.78821 128 99 83 
0.271811 0.894088 2.784 250 223 240 
0.413085 1.54722 2.47031 148 81 90 
0.616042 1.36526 2.54622 59 30 35 
0.579789 0.391891 2.79417 23 21 26 
0.284429 1.50188 2.59983 76 56 68 
0.710273 1.40698 2.57908 85 71 68 
0.785707 0.330351 2.80934 135 88 78 
0.764002 0.225215 2.84822 119 63 64 
0.389861 1.0447 2.67154 135 67 66 
0.324415 0.336271 2.93252 191 117 114 
0.384519 1.72682 2.42529 100 41 45 
0.745271 1.06854 2.62966 136 67 70 
0.404874 0.350862 2.86538 170 80 89 
0.293876 0.450486 2.90912 197 127 125 
0.463013 0.740725 2.71021 116 85 80 
0.485586 0.566255 2.75672 164 71 79 
0.251796 1.47916 2.66144 158 85 92 
0.630888 0.0790176 2.94279 83 63 64 
0.878356 0.451711 2.80026 62 42 41 
0.687325 0.280491 2.82488 108 30 30 
0.828737 0.702327 2.7078 150 76 73 
0.489175 1.18513 2.61118 124 70 84 
0.586267 1.06811 2.64772 113 48 44 
0.541116 0.947203 2.66346 168 99 92 
0.667568 1.50717 2.5308 129 85 84 
0.80107 0.952349 2.68075 106 65 71 
0.834728 0.247393 2.85266 53 31 33 
0.69073 1.03134 2.62702 140 64 66 
0.662398 0.362308 2.7935 134 81 73 
0.915822 0.391115 2.86367 100 69 67 
0.601274 0.854863 2.67066 54 33 40 
0.824755 0.18847 2.89408 78 48 48 
0.253414 0.799915 2.82094 209 149 157 
0.527373 1.08656 2.63489 149 74 78 
0.420233 1.48378 2.52334 51 30 39 
0.539552 0.670734 2.47574 118 99 93 
0.46845 1.69674 2.42673 70 24 26 
0.37583 0.484146 2.74837 155 125 117 
0.373608 1.3503 2.60317 91 51 60 
0.244779 1.25542 2.55704 123 111 135 
0.537353 0.792463 2.69079 143 77 78 
0.924333 0.538185 2.83451 91 63 62 
0.269998 1.72989 2.59089 175 174 170 
0.350256 1.38314 2.69084 170 121 114 
0.44975 1.04373 2.80235 69 33 37 
0.478621 1.12898 2.64946 221 170 187 
0.270995 1.13855 2.7216 96 37 43 
0.594659 0.615951 2.71351 60 35 28 
0.682698 1.39488 2.52046 117 98 92 
0.715386 0.101544 2.94051 98 70 69 
0.387548 1.60728 2.55848 56 53 48 
0.346723 1.13977 2.64587 31 27 26 
0.464492 0.521016 2.70425 192 145 129 
0.122933 1.3972 2.74144 196 196 196 
0.322271 1.5196 2.4194 71 47 47 
0.817533 0.380562 2.79735 144 96 86 
0.276935 1.30447 2.53402 97 86 102 
0.439662 1.29789 2.46091 223 191 204 
0.557419 0.434983 2.73618 27 22 29 
0.264783 1.02244 2.6391 67 21 24 
0.527308 1.12273 2.56258 23 17 21 
0.403662 0.411768 2.76069 186 154 133 
0.487664 0.495664 2.7145 188 131 120 
0.281754 1.36087 2.51563 86 79 87 
0.449792 0.372918 2.76511 183 138 119 
0.293862 0.949502 2.63143 245 216 236 
0.424559 1.24794 2.51022 112 54 66 
0.587265 0.712061 2.65129 169 125 98 
0.621264 0.786873 2.64053 155 109 85 
0.513039 1.20648 2.51432 37 30 38 
0.497489 1.29542 2.45414 153 81 82 
0.481863 0.814723 2.62941 19 17 22 
0.537654 1.00422 2.59816 35 32 41 
0.497338 0.733974 2.64494 58 44 44 
0.385297 0.303749 2.80224 47 37 48 
0.404892 0.480189 2.73335 159 130 122 
0.471903 0.931189 2.63829 28 17 21 
0.62273 0.979599 2.63049 172 94 94 
0.654864 0.747586 2.65036 19 14 18 
0.739159 1.27908 2.5757 51 40 44 
0.300268 0.795588 2.69855 148 72 76 
0.331006 0.896139 2.63978 36 31 37 
0.742031 0.670953 2.68503 172 136 114 
0.517684 0.945994 2.6137 222 164 176 
0.842807 0.819525 2.71234 17 6 14 
0.553008 0.658634 2.66153 159 112 92 
0.694695 1.38914 2.52455 40 30 31 
0.376058 1.27651 2.52054 115 49 63 
0.408749 0.86893 2.6581 41 31 39 
0.724767 1.16231 2.60711 38 35 42 
0.398709 0.368656 2.7835 184 147 129 
0.331777 0.993527 2.59147 72 66 80 
0.267788 1.40946 2.52181 182 144 131 
0.68682 0.880449 2.66488 44 24 26 
0.321069 1.44204 2.46079 85 76 97 
0.681608 1.32526 2.53685 41 29 39 
0.389338 1.0066 2.59104 41 24 30 
0.275959 1.2443 2.5602 103 101 115 
0.560084 0.228824 2.81188 36 27 32 
0.810725 0.534742 2.75262 165 134 114 
0.370269 0.819085 2.67275 34 8 19 
0.747553 0.287134 2.81198 35 24 28 
0.487852 0.320488 2.78454 156 101 98 
0.67529 0.948752 2.63759 48 37 45 
0.352278 0.434757 2.76976 213 164 157 
0.778299 0.856566 2.68357 151 84 78 
0.372308 1.38157 2.47809 42 39 50 
0.409756 0.386302 3.0012 54 38 49 
0.408361 0.705285 2.65328 206 181 176 
0.546235 0.845677 2.62681 149 98 69 
0.509923 0.143336 2.86936 40 27 34 
0.403191 0.940185 2.62516 32 23 26 
0.547927 0.488709 2.7167 122 81 75 
0.643184 0.659665 2.66959 149 107 85 
0.617998 1.44967 2.46684 53 41 55 
0.435351 1.12633 2.5875 116 90 115 
0.805111 0.319285 2.82066 40 29 35 
0.434267 1.76312 2.35519 58 37 34 
0.497645 0.436898 2.7342 27 27 35 
0.428461 1.39596 2.47534 31 24 32 
0.716158 1.22032 2.58457 59 49 58 
0.40796 1.10464 2.54222 20 18 19 
0.501001 0.373113 2.7612 123 91 94 
0.397125 1.21085 2.55143 95 88 106 
0.699672 0.505526 2.7266 22 12 13 
0.392113 0.758705 2.64922 94 82 96 
0.651929 1.22886 2.56939 38 33 40 
0.57268 1.41169 2.47788 141 71 73 
0.337602 0.274617 2.85079 68 53 60 
0.484936 1.38328 2.48473 28 14 14 
0.322812 1.52422 2.44494 202 136 138 
0.299314 0.861944 2.6611 81 50 65 
0.630961 0.492812 2.72 52 33 35 
0.660237 1.5529 2.49259 26 9 15 
0.332349 1.33915 2.50056 88 64 80 
0.583661 0.169462 2.84219 31 21 30 
0.603026 0.110753 2.88674 44 35 36 
0.412424 0.19342 2.8593 67 48 50 
0.471944 1.02288 2.60586 55 29 38 
0.621699 0.244484 2.8095 61 19 23 
0.703308 1.37083 2.45131 149 125 113 
0.666709 1.01851 2.60778 66 58 73 
0.318639 0.372391 2.81253 75 45 53 
0.518293 1.44423 2.44886 37 34 41 
0.466934 1.5363 2.38252 52 7 4 
0.763287 0.99402 2.62579 48 32 43 
0.87807 0.457366 2.81684 54 38 41 
0.413447 1.50688 2.38904 188 135 145 
0.765321 1.21358 2.6047 151 124 115 
0.672868 0.411432 2.753 36 26 27 
0.834263 0.260897 2.86135 45 31 31 
0.508593 1.48698 2.41431 43 32 40 
0.717303 1.42425 2.55157 89 68 65 
0.801523 1.05195 2.66089 20 0 0 
0.575075 1.49972 2.41846 119 70 73 
0.749624 1.33174 2.59251 59 46 40 
0.671942 0.158567 2.86036 35 24 32 
0.630819 1.39709 2.49546 43 37 47 
0.47591 0.233661 2.82328 47 31 41 
0.826179 0.709418 2.70828 155 111 98 
0.581181 1.31296 2.47283 191 146 140 
0.770298 0.922343 2.65864 50 35 40 
0.451198 0.674078 2.65598 176 141 135 
0.694549 0.647679 2.68492 156 121 101 
0.765263 0.175696 2.86528 39 28 34 
0.800272 0.651265 2.7118 48 31 39 
0.601916 1.05068 2.60807 151 82 85 
0.367956 1.70817 2.3613 161 97 95 
0.819437 0.5956 2.7396 160 110 99 
0.277029 1.19452 2.57854 254 240 255 
0.576698 1.26239 2.50358 54 30 30 
0.849975 0.487449 2.78588 165 128 102 
0.852761 0.213775 2.90121 66 50 51 
0.724637 1.02075 2.60444 53 33 34 
0.64495 1.14171 2.60087 50 27 35 
0.530561 1.72663 2.37029 115 80 74 
0.482006 1.16813 2.53692 96 61 81 
0.660396 0.35948 2.77006 154 100 88 
0.419607 1.44056 2.44104 55 29 38 
0.291875 1.12885 2.59882 192 135 150 
0.577508 0.387072 2.75541 25 21 22 
0.592207 0.617919 2.67529 35 14 13 
0.34342 1.20347 2.55894 155 100 105 
0.831046 0.434799 2.79213 119 58 63 
0.763053 0.226803 2.84312 129 71 69 
0.279155 1.46043 2.49955 143 92 101 
0.581312 0.567233 2.68952 162 121 103 
0.691121 1.26843 2.55932 152 100 102 
0.614344 1.3433 2.51149 41 10 18 
0.774854 0.600408 2.71508 143 105 94 
0.380838 0.245762 2.83882 168 93 90 
0.534909 0.777932 2.63702 151 104 96 
0.386762 1.3263 2.50535 43 21 33 
0.748612 0.759851 2.66214 156 118 109 
0.599204 0.845494 2.63157 40 17 23 
0.438062 0.98433 2.61225 135 67 64 
0.892948 0.394854 2.84518 54 39 42 
0.446044 1.34509 2.52121 162 86 88 
0.786586 1.15927 2.63039 70 48 51 
0.814485 0.95315 2.66996 73 48 52 
0.26593 1.0741 2.6271 62 48 63 
0.630945 0.0833726 2.95235 89 68 65 
0.92047 0.650753 2.82434 85 56 52 
0.480888 0.875995 2.62787 228 171 178 
0.35242 0.503576 2.74019 177 126 131 
0.524045 1.06402 2.57597 142 69 80 
0.496471 0.508816 2.66053 39 23 24 
0.346729 0.160378 3.03135 118 117 112 
0.924957 0.34448 2.90496 111 76 72 
0.886696 0.556717 2.78935 157 120 101 
0.635548 1.28529 2.53457 142 86 95 
0.662023 0.213809 2.82839 69 27 31 
0.907499 0.726414 2.79026 124 83 79 
0.937795 0.432247 2.88701 79 51 47 
0.444098 0.931566 2.57207 63 23 31 
0.37339 1.63735 2.34104 205 145 153 
0.795295 1.10257 2.6495 109 89 100 
0.533641 0.101631 2.90421 156 107 103 
0.474415 1.23574 2.49394 180 101 106 
0.317369 1.58565 2.42893 172 107 111 
0.637403 1.51061 2.46551 100 64 64 
0.859527 0.673517 2.73975 79 39 40 
0.727147 0.944415 2.63767 139 80 74 
0.699408 0.098276 2.91797 78 60 60 
0.869357 0.606378 2.76738 75 41 40 
0.935251 0.49041 2.89625 72 54 54 
0.524831 0.193967 2.83528 117 47 49 
0.417555 0.838496 2.58813 159 93 94 
0.601406 0.681937 2.78694 31 13 11 
0.827058 0.876949 2.69474 145 92 98 
0.703132 0.900104 2.57619 154 83 77 
0.253292 0.96764 2.66082 179 138 156 
0.588023 1.62955 2.40294 93 38 35 
0.135797 1.00269 2.70506 207 207 207 
0.466793 1.65981 2.36686 80 31 34 
0.34463 1.65352 2.39015 176 114 115 
0.378444 1.15631 2.57881 81 57 71 
0.447077 0.437541 2.74317 150 106 103 
0.640472 0.785643 2.80982 103 90 81 
0.666261 1.44438 2.49678 117 66 65 
0.929048 0.580777 2.8421 103 68 66 
0.332667 0.75148 2.65747 228 203 225 
0.236445 0.907106 2.85156 183 140 160 
0.924278 0.486072 2.84939 58 42 42 
0.822885 0.460491 2.74849 133 54 60 
0.434667 0.781943 2.62969 122 92 90 
0.73611 0.13179 2.89293 75 41 42 
