# .PCD v0.7 - Point Cloud Data file format
VERSION 0.7
FIELDS x y z
SIZE 4 4 4
TYPE F F F
COUNT 1 1 1
WIDTH 1602
HEIGHT 1
VIEWPOINT 0 0 0 1 0 0 0
POINTS 1602
DATA ascii
1.6517993 1.3403201 4.6496749
1.5426587 1.3397191 4.7416234
1.6911777 1.2430893 4.6451321
1.5923023 1.2763392 4.7207665
1.8935487 1.0939252 4.489428
1.5183938 1.0110917 4.85639
1.7934804 1.3993202 4.4933457
1.6253458 1.4534849 4.6363544
1.4930053 1.4076883 4.7594633
1.5695058 1.2956104 4.7335625
1.4824247 1.3353462 4.7894154
1.8452032 1.1338974 4.5287685
1.712326 1.257895 4.6209078
1.7937551 1.3993081 4.493063
1.6789317 1.0680435 4.7095819
1.7371006 0.90385997 4.7049971
1.6477979 0.92344725 4.7780762
1.6427926 1.270872 4.6795549
1.6100097 1.3811028 4.6731009
1.7040095 1.1741896 4.6549325
1.9524121 1.2461451 4.3685641
1.8945886 1.351999 4.3987861
1.5772976 0.8744995 4.8489399
1.7171683 0.95789433 4.7076626
1.8078867 1.1182809 4.5723891
1.8844457 0.88224739 4.5652061
1.9208796 1.2552073 4.403121
1.5208782 0.91839778 4.8801088
1.6371315 1.1674157 4.7161622
1.6427591 1.4152746 4.6334543
1.5888227 1.2612861 4.7282438
1.8141723 1.0264003 4.5946522
1.5765586 1.4978296 4.6639047
1.8069847 1.1638411 4.5587511
1.4917687 1.2621782 4.8042068
1.9231846 0.95377773 4.5010204
1.589515 1.4224067 4.6773329
1.7149783 1.342237 4.5910106
1.6462018 1.4696497 4.612402
1.5583774 0.8661806 4.8659043
1.781548 1.2158093 4.5675917
1.7560568 1.2176967 4.5921078
1.6729288 0.96741462 4.7441282
1.9106079 1.1517395 4.4510207
1.7713275 1.4012829 4.5155463
1.9466556 0.97856086 4.466435
1.8890116 0.87697858 4.5618773
1.9202846 1.0373002 4.4778347
1.8067732 1.1381845 4.5671921
1.9730366 1.2441767 4.3437662
1.9701527 1.0419946 4.4180894
1.4960054 1.358713 4.7721195
1.535368 1.1898291 4.7923198
1.5314406 0.90971446 4.874568
1.8313527 0.9947775 4.5868702
1.9211578 1.2501739 4.404592
1.5973965 1.299769 4.709312
1.5636795 1.3710588 4.7149997
1.5751753 1.4847916 4.6693082
1.6386635 0.94278079 4.7803111
1.5964454 1.2997935 4.7100987
1.6266733 1.3504274 4.6685057
1.6154138 1.4072497 4.660068
1.8176675 1.1417885 4.5549173
1.7818006 1.2192048 4.5662351
1.7875693 1.4380573 4.4858069
1.9341093 1.1141833 4.4365959
1.6467822 1.4678379 4.6124821
1.7389125 1.0900087 4.6484294
1.7184241 0.95894665 4.7062206
1.5539637 1.5246905 4.674047
1.7291106 1.3283529 4.5820894
1.9447842 0.9054504 4.4914427
1.8515446 1.3234168 4.4578185
1.6352611 1.178305 4.7144742
1.5291569 1.4276378 4.7251182
1.8326657 1.3598559 4.4655523
1.8032488 1.1000327 4.5828214
1.8238494 1.3445754 4.4804397
1.6670108 1.3414422 4.6356893
1.6776043 1.3949602 4.6085606
1.9233602 1.0247992 4.4783707
1.7064993 0.92300636 4.7272663
1.7039658 1.0263219 4.6996145
1.527915 1.4077996 4.7322903
1.8582928 1.3448582 4.4427233
1.9271302 1.1548471 4.4309163
1.7527652 1.1607013 4.6134014
1.6659614 1.4692345 4.594511
1.7886966 1.077098 4.6044617
1.5162742 1.4628093 4.7242846
1.7611436 1.2519276 4.5760493
1.4883763 1.2756208 4.8027682
1.5003186 1.1168891 4.8400121
1.8868523 1.3193136 4.4196305
1.9627577 0.88586974 4.476676
1.6779332 1.3967077 4.6076803
1.8398513 0.90807158 4.6041765
1.7348732 1.2626578 4.5980487
1.5563585 1.5260869 4.6716065
1.9625808 0.88618565 4.4767852
1.9166937 0.91426843 4.5204372
1.7669245 1.1873786 4.5912142
1.6693815 1.4652488 4.5926962
1.670421 1.4052126 4.6117721
1.8474841 1.2764118 4.4786615
1.6846466 1.1967616 4.6655231
1.9001249 1.3344789 4.3987622
1.705918 1.1720734 4.6538391
1.9550711 1.031188 4.4396091
1.848093 1.1690832 4.5141978
1.7360051 1.2620177 4.5971718
1.9675201 0.95942968 4.4480882
1.6214429 1.4982215 4.6250038
1.5689228 1.490212 4.6727929
1.7376237 1.2157778 4.6104722
1.6940202 1.3441116 4.6100831
1.6617426 1.188616 4.6883979
1.7420344 1.2038831 4.6100445
1.8203042 1.218329 4.5272145
1.9606038 0.88737667 4.478723
1.7053249 1.2665933 4.6246486
1.9175044 0.91291708 4.5199475
1.7626966 1.2147075 4.5865908
1.6908413 1.1749825 4.6666627
1.8038239 1.0660541 4.5928359
1.7738376 1.1459997 4.597569
1.9280863 0.92693818 4.503808
1.8251792 1.1381494 4.5483413
1.8479377 1.2748618 4.478704
0.69440854 1.4632757 5.1600552
1.9696795 1.0517191 4.415421
1.7091436 1.2371716 4.6304703
1.8594298 0.97162294 4.5648251
1.8169843 1.1078178 4.5664477
1.9359213 1.1100421 4.4358768
1.763297 1.4243324 4.5156894
1.7021703 1.1436659 4.666007
1.9105514 0.95036596 4.5161815
1.6427091 1.4160786 4.6332359
1.7570974 1.1235338 4.6208482
1.8937207 1.1512307 4.4702802
1.8946285 1.1408019 4.4727516
1.7631707 1.4261063 4.5151978
1.7178769 1.2605517 4.6148539
1.8165349 1.30748 4.5010786
1.8790023 1.3543954 4.4158998
1.4941407 1.4194136 4.7549896
1.6085021 1.1820289 4.7359128
1.849843 1.167958 4.512701
1.719157 1.0935054 4.6657319
1.8402449 1.4197112 4.4356818
1.8204106 1.4226317 4.4563584
1.5584974 1.4789765 4.6850791
1.6029968 1.3512379 4.6885366
1.7316253 1.2374719 4.6092544
1.6759429 0.96776521 4.7414103
1.6096699 1.3829808 4.6727929
1.668638 0.95648807 4.7509608
1.6836641 1.4116926 4.5974026
1.9274092 1.1599611 4.4288392
1.8008344 1.3089639 4.516983
1.8888602 1.3186247 4.4175754
1.8145591 1.0192262 4.5964561
1.5454156 0.93592364 4.8567905
1.4859928 1.4177909 4.7617035
1.8516347 1.166048 4.511415
1.8458861 1.4161419 4.4307179
1.7434136 1.1739812 4.6181803
1.9011695 1.2140385 4.440464
1.7187318 0.96003431 4.705627
1.7424042 1.174771 4.6188936
1.6073388 1.2476677 4.7170148
1.7299656 1.2348129 4.611681
1.7664275 1.1754398 4.5955033
1.9617261 1.2141113 4.3687582
1.696941 1.3379643 4.6093755
1.9734457 1.039623 4.4149122
1.7667974 1.1868074 4.5915208
1.4742903 1.3981192 4.7765388
1.7328897 1.244686 4.6057377
1.8392702 0.90622073 4.6053157
1.8855555 1.3394434 4.4138303
1.914813 1.0201993 4.4894991
1.7617826 1.1481439 4.6086445
1.9706911 1.3058622 4.3236032
1.9223249 1.0228888 4.4801588
1.5148364 1.2329755 4.7954001
1.6964313 1.2747837 4.6302581
1.819818 1.3117695 4.4961333
1.8775357 1.3535178 4.4178958
1.7416576 1.3796481 4.5527067
1.7668061 1.4113187 4.5166612
1.7870688 1.4305813 4.4889913
1.6797615 0.95805997 4.7408619
1.6358757 1.0532866 4.75102
1.5330255 0.95716482 4.8603506
1.6755402 1.1740732 4.680655
1.8398527 1.3943547 4.4453402
1.8001888 1.3984989 4.4865932
1.6442814 1.4737937 4.6127515
1.522961 1.2544192 4.7828135
1.7354723 0.96749449 4.6881409
1.7022318 1.1460354 4.6652255
1.5648235 1.3585114 4.7179747
1.5759081 1.034551 4.8054504
1.6687095 1.0800785 4.7149839
1.598829 1.2659494 4.7185292
1.814652 1.3537598 4.4870291
1.6555014 0.94140124 4.7664962
1.5224831 1.4455731 4.724792
1.889428 1.1198878 4.4854779
1.6559386 0.94000298 4.7665195
1.5732235 0.99946094 4.8175111
1.7956359 1.0703492 4.5996757
1.9345471 1.0375739 4.4614458
1.8096787 0.94495499 4.6236801
1.5726107 1.3534731 4.713171
1.7367835 1.1035968 4.6462798
1.7660168 1.3826581 4.5273848
1.7506686 1.392512 4.539402
1.5992459 1.0253876 4.7893448
1.5262023 1.4144028 4.7315903
1.5345011 0.97782958 4.8535113
1.8376044 0.87901282 4.6149893
0.12667678 1.523049 5.2595344
1.6692345 1.4195375 4.6081181
1.7199602 1.1775056 4.6391759
1.9413757 1.1270685 4.4237142
1.6602808 1.3518491 4.638391
1.8271756 1.3412086 4.4780526
1.6786102 1.2032093 4.6689467
1.9053943 0.9920035 4.5089331
1.9317954 1.1220295 4.4366436
1.7387162 1.1698059 4.6239581
1.8317405 1.1741195 4.5298314
1.7561311 1.4306549 4.5207396
1.9330368 1.119095 4.4361892
1.8814108 1.3450327 4.4165521
1.4859266 1.3601228 4.7793231
1.8494275 1.3469298 4.4518108
1.6030598 1.2361042 4.7241154
1.7335172 1.2278174 4.6105428
1.5517952 0.88831949 4.8649445
1.6060995 1.4632267 4.649961
1.9508203 0.90701306 4.4840231
1.5546216 1.4673902 4.6919837
1.8130982 1.2711606 4.5170507
1.9473741 0.90986139 4.487114
1.5103381 1.1593641 4.8203163
0.12123068 1.5148256 5.2620273
1.8056242 1.0590696 4.5931931
1.6490542 1.3568519 4.6468067
1.8393379 0.92524672 4.5996161
1.5559903 1.4967653 4.6814194
1.5846535 1.2543011 4.7337961
1.5496023 1.4717753 4.6946921
1.9373065 1.1576991 4.418014
1.5132812 1.4597206 4.7276106
1.475859 1.3901434 4.7777882
1.790803 1.3556788 4.5113454
1.957148 0.89455056 4.4805374
1.7819242 1.0965983 4.6050901
1.7439116 1.0236696 4.663734
1.5284088 1.2178632 4.7894468
1.9413936 0.95777327 4.4790773
1.856511 1.3602089 4.4391975
1.6007119 1.3581293 4.6882977
1.755797 1.4412773 4.517364
1.9465861 1.0410171 4.4463496
1.7983599 1.072372 4.5963387
1.8977724 1.209139 4.4460258
1.9717708 1.0662379 4.4080324
1.8039844 1.3977094 4.4828653
1.5363005 0.96039748 4.856977
1.6356443 0.91918647 4.7894511
1.932754 0.91100836 4.5034304
1.6709462 1.4592025 4.593286
1.7448012 1.097399 4.6406245
1.7245198 1.0719367 4.6673017
1.6979135 0.90909916 4.7388453
1.6826658 1.2728026 4.6434793
1.5180384 1.1491147 4.8174605
1.7939889 1.3760229 4.5009794
1.6760985 1.4738082 4.5835629
1.7900505 1.4446509 4.4808474
1.6840091 1.134318 4.6852226
1.896246 1.3255106 4.4065533
2.3937201 1.0726732 3.6897976
1.5607963 1.4917598 4.6790581
1.6753038 0.95482606 4.7456656
1.7945397 1.0697063 4.6009626
1.7869738 1.0269271 4.6215124
1.8495877 1.4135709 4.4275265
1.7764457 1.242619 4.5639381
1.8092786 1.2170327 4.5390658
1.834023 1.0725111 4.5600672
1.553517 1.4449301 4.7000451
1.0823559 1.4090983 5.0160823
1.6395074 1.1304191 4.725224
1.9461539 1.0446212 4.4456725
1.9565997 1.0480723 4.4322453
1.9289306 0.8777526 4.517837
1.8246176 1.0767161 4.5684381
0.34528327 1.4731083 5.2431264
1.965621 0.91453445 4.4644661
1.7982769 1.1295025 4.5785279
1.5882505 1.3909818 4.6884069
1.757077 1.1997404 4.5968695
1.8702585 1.0708107 4.5223451
1.7776105 1.4416144 4.494916
1.9768054 0.94475365 4.4417152
1.9257518 1.1999023 4.4169478
1.6877027 1.4398799 4.5841818
1.679273 1.2025669 4.6685519
1.700886 1.1462729 4.6663771
1.7328901 1.1794299 4.6264524
1.6490978 1.3570968 4.6466889
1.8741326 0.92076248 4.5646939
1.6524607 1.3440078 4.6479044
1.0840578 1.4064457 5.0159531
1.6882116 1.133557 4.6816955
1.8229735 1.2075223 4.5280089
1.531116 1.2341118 4.7825432
1.6911626 1.3719499 4.6036
1.4053015 1.4609252 4.8076324
1.5928214 1.3960191 4.6829624
1.8897443 1.3630588 4.4003444
1.7962772 1.1413639 4.5767722
1.7437383 1.4328195 4.5324135
1.7038432 1.1671615 4.6572576
1.4768672 1.3378487 4.7928128
1.6225855 1.1825016 4.7239699
1.8170509 1.1973631 4.5375113
1.7656063 1.080525 4.6259322
1.5112723 1.1536349 4.8212686
1.5476933 0.93917114 4.8541536
1.9116096 1.2100321 4.4298682
0.41895172 1.4894029 5.2251549
1.9167006 0.89986938 4.5248022
1.8223728 1.4190391 4.4555292
1.5360898 1.4100494 4.7250938
1.7817364 1.4371943 4.4922018
1.795366 1.0843613 4.5956001
1.5705467 1.3438632 4.7178502
1.7209231 1.1788325 4.6378646
1.6991749 0.90988076 4.7375078
1.5953493 1.2117174 4.7378845
1.6724557 1.0867662 4.7097201
0.21119362 1.5188537 5.2516279
1.6155525 1.4467369 4.6471419
1.6265419 1.1735268 4.7233286
1.9372222 1.1516724 4.4201884
1.8650001 1.0823461 4.5243049
1.9202017 0.99788934 4.4905305
1.8090976 1.2192529 4.5385203
1.9136151 1.2090646 4.4278865
1.8444816 1.0750123 4.5483866
1.5795655 1.5327888 4.6498933
1.6729015 0.93254942 4.7540798
1.4989588 1.4274954 4.7487931
1.7270582 1.0772834 4.6633425
1.6764851 1.4319222 4.597312
1.7044531 1.3946234 4.5835872
1.7232388 1.192183 4.6315227
1.7638848 1.1268575 4.6132684
1.6779741 1.4324043 4.5957704
1.9630566 1.0626296 4.4197221
1.9092656 1.1668062 4.4474392
1.8658876 0.88258803 4.5847473
1.6616688 0.92805195 4.765007
1.6748669 0.92910177 4.753355
1.8205175 0.8938477 4.6278944
1.9449947 1.2304025 4.3832622
1.9498223 1.0280119 4.446815
1.9505526 1.0729518 4.4311323
1.9055161 1.0027246 4.505425
1.8371 1.0612336 4.5604196
1.7395123 1.222448 4.6065407
1.8056036 1.4328245 4.4686108
1.5043892 1.4800004 4.7282081
1.6383137 1.0575621 4.7477169
1.5330929 0.95893902 4.8598099
1.5768116 1.2917365 4.7287965
1.6401972 1.3899902 4.643961
1.7740563 1.0501442 4.6270461
1.7367208 1.2044657 4.6149268
1.5993733 1.4847004 4.6487393
1.9324571 1.1430238 4.4287424
1.9093333 0.89482862 4.5344615
1.5216604 1.2624553 4.7814221
1.5449204 1.2421558 4.7693663
1.8923459 1.3268803 4.4105716
1.9528012 0.99074686 4.455389
1.6660674 1.0726527 4.7194843
1.7535388 1.4108514 4.5302234
1.7735169 1.0505579 4.6274424
1.5870143 1.2454332 4.7345514
1.7282275 1.2041193 4.6230779
1.7702522 0.98697478 4.6496968
1.9758487 1.0023248 4.4243112
1.5581484 1.3657027 4.7211657
1.6464432 1.1286526 4.7198153
1.6684381 1.2878518 4.6515446
1.9397699 0.89873046 4.4992266
1.5606745 1.3677021 4.718493
1.820363 0.8937465 4.6280785
1.419317 1.4403534 4.803905
1.7058653 1.1833187 4.6503997
1.5684348 1.3472836 4.7185154
1.8168098 1.0101497 4.5969563
1.7569032 1.0937784 4.6302238
1.660498 1.1440973 4.7030134
1.5201615 0.89196694 4.8878284
1.8427167 1.3562418 4.455874
1.5990388 1.0281078 4.7887354
1.6867412 1.1354645 4.6824331
1.7826598 1.4258335 4.4952679
1.4191848 1.4370328 4.8050003
1.7417079 1.0914048 4.6453753
1.8263614 1.3398674 4.4793968
1.9233096 1.1813028 4.4262652
1.6530207 1.3582727 4.6428175
1.5797327 1.5360138 4.6486859
1.9207494 1.1757661 4.4311509
1.7104467 1.2147604 4.6363406
0.39858308 1.4957125 5.2276411
1.835058 1.1706632 4.5274811
1.9273866 1.2111589 4.4110827
1.9458059 0.95928657 4.4735203
1.6356128 1.3081449 4.6741219
1.9626322 1.1876572 4.3771205
1.6191318 1.3884033 4.6629105
1.9493266 1.0776405 4.4310136
1.7688711 1.4543554 4.4994187
1.9307506 1.1438606 4.43045
1.1341616 1.4354593 4.9819374
1.6109638 0.96926069 4.7957401
1.5047455 1.2516363 4.7975554
2.3468592 1.1032199 3.7858334
1.9486494 1.0773456 4.4319105
1.7321255 1.1795796 4.6271272
1.5587939 1.2660276 4.7511878
1.7553043 1.3727813 4.5415239
1.8173904 1.3485619 4.4859371
1.894493 1.2552178 4.4337139
1.6466156 1.3059744 4.6651855
1.9265141 0.95523244 4.4968157
1.6561269 1.246279 4.6755404
1.644007 1.4885286 4.608068
1.6880205 1.0607285 4.7037063
1.4901212 1.0520914 4.8658442
1.8287953 1.3139982 4.4858046
1.7063346 1.1485208 4.6607189
1.8168854 1.3494595 4.4861603
1.7713447 0.98739898 4.6485233
1.6466544 0.97800875 4.7636046
1.489328 1.425815 4.7566972
1.7283604 1.2522467 4.6076164
1.8331712 1.0391861 4.5713558
1.8701392 0.87889355 4.5813713
1.8153331 1.0121815 4.5978255
1.7008854 1.3912699 4.5880814
1.9064972 1.0218896 4.4982634
1.9495865 1.1494604 4.4062862
1.9201307 0.99565965 4.4913168
1.9039626 1.0067295 4.5058842
1.9257095 1.2657444 4.3936243
1.7864923 1.4206111 4.4931278
1.5120376 1.253603 4.7914319
1.8667531 1.1585419 4.4975905
1.6804702 1.2203878 4.6619434
1.813718 1.1336831 4.5615587
1.666265 1.073259 4.7191334
1.9795009 0.88932598 4.4558864
1.5656444 1.3835582 4.7094855
1.9428979 1.258082 4.3757925
1.6106507 1.4143077 4.6619058
1.9176278 0.89916247 4.5239873
1.93731 1.1309325 4.4271798
1.9270517 1.2112616 4.4114404
1.7834063 1.4268471 4.4941335
1.6205311 1.3870451 4.6621342
1.9667675 1.0601254 4.4161124
1.6002017 1.4804046 4.6494331
1.9465111 0.88479829 4.495779
1.8008835 1.0718001 4.5939975
1.1345272 1.435155 4.9818273
1.5234892 1.1327902 4.8180323
1.6328313 1.4464389 4.6320558
1.851395 1.3513517 4.4480591
1.7251301 0.89227974 4.7192235
1.6544648 0.8986662 4.7793784
1.9174305 0.89938045 4.5241404
1.6520249 1.0697962 4.7324605
0.23086213 1.4583215 5.2640758
1.590995 1.4134961 4.6789331
1.8335402 1.1533241 4.5347314
1.8228806 1.0346185 4.5833058
1.6284163 0.96705413 4.7819982
1.6202255 1.3902012 4.661386
1.7381724 1.2255764 4.6068211
1.8791689 1.1506686 4.4866214
1.8763609 1.2833706 4.4443431
1.7881542 1.1241565 4.5903225
1.8921082 1.0714175 4.498332
1.6728793 1.1885923 4.6785665
1.6547737 1.184464 4.6957655
2.382334 1.061053 3.7247972
1.5130594 1.4474558 4.731626
1.762463 1.4402868 4.5109468
1.6404309 0.9191305 4.7854719
1.6723436 1.0757575 4.7130857
1.9841378 1.0759844 4.3896527
1.4766243 1.430366 4.7649326
1.8482535 1.0689453 4.5463471
1.539023 1.4395313 4.7134976
1.7107629 1.098821 4.6718192
1.9643831 1.2611454 4.3483019
1.7519137 1.168877 4.6116476
1.6955771 1.2264231 4.6463599
1.8044868 1.2702992 4.5262833
1.7145014 1.3603314 4.5854735
1.8558857 1.1505104 4.5119734
1.7734092 1.1568637 4.5945568
1.7982211 1.3169175 4.5169778
1.4186693 1.3493954 4.8315039
1.6582564 1.481553 4.5974426
1.7020785 1.2125778 4.6447468
1.753406 1.4103822 4.5305185
1.5314181 1.3659019 4.7424831
1.5293047 1.236688 4.7831821
1.8587563 1.3252059 4.4492135
1.8345972 1.0546848 4.5650606
1.5253441 1.3308002 4.7579875
1.7001334 1.3941661 4.5878239
1.5105022 1.0973692 4.8379807
1.6488938 1.2676878 4.6752172
1.5125605 1.1010438 4.835391
1.6600881 1.1439053 4.7034287
1.9162692 1.2250938 4.419198
1.51858 1.1252095 4.8239388
1.7267647 1.243275 4.6120071
1.5848142 1.287654 4.7234817
1.7973363 1.3653436 4.5012102
1.7910959 1.3573366 4.5104699
1.7491894 0.95856816 4.677999
1.6266837 1.273334 4.6927128
1.6520188 1.4981833 4.5975366
1.7552793 1.405347 4.5303788
1.7155569 1.367312 4.5821457
1.667531 1.168185 4.6895442
1.88133 1.0907575 4.5039129
1.6331339 0.94180334 4.7852006
1.6976061 1.0571936 4.696198
1.7207272 1.3490334 4.583282
1.7737155 1.1583023 4.5938005
1.8054072 1.2652041 4.5270424
1.8802254 1.3712963 4.4083085
1.6934597 1.2590591 4.6379948
1.8367184 0.99053532 4.5826616
1.699265 1.0572325 4.6946974
1.7115331 1.3930109 4.5773931
1.9274173 1.1170444 4.4434047
1.7992295 1.438589 4.4733238
1.6872269 1.2811641 4.6366658
1.7712448 1.1015968 4.6139784
1.6175971 1.4707472 4.6374846
1.6557667 0.99329561 4.7514811
1.5239969 1.4856646 4.7109399
1.9634228 1.1726555 4.3814726
1.8093302 0.89446616 4.6388388
1.9075369 0.92972797 4.5258527
1.7132826 1.3515271 4.589551
1.6115305 1.4222369 4.6585875
1.716508 1.1034673 4.6651483
1.7923596 1.1322945 4.583569
1.5354651 1.3964282 4.7298346
1.5968057 1.3283961 4.7009125
1.6262939 0.92285323 4.7961783
1.622113 1.4181664 4.6507187
1.5969658 1.2514788 4.7245007
1.6708416 1.20151 4.6763997
1.4571851 1.2987072 4.818923
1.6796435 1.4648864 4.5832772
2.3834112 1.0543379 3.7258286
1.987131 0.91659701 4.4382377
1.7445736 1.4323953 4.5317278
1.6269463 0.92417431 4.7952709
1.558219 1.3662621 4.7209344
1.5310389 1.0265772 4.8425221
1.9311879 1.103551 4.4435635
1.6548343 1.4989995 4.5946846
1.6308087 1.0309597 4.761744
1.9343069 1.2421925 4.3918591
1.926906 0.95593166 4.4961553
1.830367 1.0992082 4.5554166
1.5098046 1.3416266 4.7667427
1.6471314 1.2690948 4.676321
1.536736 1.2976995 4.7591047
1.8300582 0.87473565 4.6238737
1.5384021 1.2976167 4.7578192
1.6421539 0.93035179 4.7808833
1.494578 1.2206942 4.8142991
1.9132032 0.93466496 4.518075
1.7574083 1.3880258 4.5342064
1.6246781 1.4620876 4.6341124
1.961722 1.0879593 4.4128036
1.8267339 1.4112978 4.4535856
1.911887 0.91008818 4.5270338
1.8865178 1.2990785 4.4272733
1.4997761 1.1056285 4.8436232
1.8993582 1.0354822 4.5018573
1.7477267 1.299385 4.5736179
1.7770218 1.2063942 4.57515
1.509473 0.90324044 4.8926806
1.5029005 1.2852169 4.7889824
1.5016427 1.1777233 4.8215299
1.7057172 1.2750814 4.6215649
1.6678042 1.0682378 4.719275
1.7552338 1.4354247 4.5199804
1.9460568 1.1363788 4.4149961
1.6293839 1.4109476 4.6466966
1.7160772 1.372203 4.5800176
0.35837811 1.51244 5.2310109
1.8268701 0.92937386 4.6110687
1.7269745 1.1533984 4.6401291
1.7133149 1.3928061 4.5757589
1.5518199 0.87561417 4.8683796
1.7449696 1.4331795 4.5310612
1.8297296 0.88586074 4.6209688
1.5282197 1.3253437 4.7573996
1.8232908 0.93413746 4.6132674
1.7304696 1.2367256 4.6105914
1.8340982 1.4141736 4.4444861
1.9134768 1.0258876 4.4891825
1.6275009 1.5184956 4.6128378
1.7058206 0.96124524 4.7169142
1.7529674 1.190343 4.6038418
1.7084852 1.2130244 4.6387024
1.7824206 1.1598896 4.5847049
1.6860043 1.2814932 4.6376767
1.5916177 1.5062884 4.6483192
0.12332886 1.4989531 5.2657266
1.7703569 1.4304924 4.5063229
1.8709143 0.93481565 4.5638762
1.5522857 0.86042738 4.8721371
1.7738082 1.1215366 4.6052761
1.563241 1.5179226 4.6685352
1.7963234 1.435339 4.4775677
1.8611654 0.87510574 4.5918813
1.9641622 0.88060629 4.4766493
1.9870391 0.91622776 4.4384646
1.6804326 1.1290106 4.6900144
1.9128613 1.0844018 4.4709091
1.8477854 0.92245209 4.5917659
1.7240715 1.4038574 4.5616708
1.8781563 1.2859883 4.4413996
1.5840361 1.3817245 4.69486
1.8298944 0.88495129 4.621068
1.5277265 1.233538 4.785337
1.9004251 1.2839363 4.4167132
1.878299 0.96904165 4.545588
1.9382926 0.99750894 4.4700489
0.18155606 1.5199723 5.2548003
1.905163 0.90228736 4.5367918
1.9026076 1.0153229 4.5046682
1.5927138 1.0111859 4.7986665
1.4833618 1.375299 4.776659
1.6706333 1.2858317 4.6502147
1.8145903 1.3358811 4.4933252
1.9220083 1.1608529 4.4348102
0.36027643 1.5088701 5.2315593
1.9326941 1.2511884 4.390553
1.5910903 1.5048721 4.6492376
1.8290339 0.87466049 4.624928
1.9838923 1.0847225 4.3869705
1.9147053 0.88272059 4.5321803
1.9369123 1.2747504 4.3769507
1.9373573 1.1962483 4.4045367
1.5093074 1.3416704 4.7671123
1.7305205 1.1451286 4.6393723
1.8127567 1.1268024 4.564734
1.9138168 0.9364357 4.51685
1.9730552 1.1251336 4.386342
1.6936085 1.0839499 4.6918073
1.9235343 1.181724 4.425858
1.9019021 1.0610409 4.4908257
1.7735826 1.2129625 4.5764365
1.754509 1.4223312 4.5252714
1.7881693 1.1196531 4.5917234
1.70007 0.89566046 4.7407317
1.8584309 0.94385749 4.5742922
1.8227075 1.3210231 4.4898663
1.9479191 1.1378074 4.412293
1.8114485 1.1078798 4.5720658
1.6992221 1.2240094 4.6437807
1.5083201 1.1343251 4.8290491
1.772079 1.0987217 4.6140575
1.625266 0.93284363 4.7942338
0.33008483 1.5028512 5.2383275
1.8142318 1.201598 4.5390358
2.1042061 1.2160108 4.1756716
1.733048 0.9595958 4.6926746
1.7857105 1.1314572 4.5904474
1.7671853 1.1107035 4.6150956
1.7602531 1.3797385 4.5341945
1.711711 1.3772374 4.5825024
1.8087353 1.2906309 4.5150075
1.5727921 1.3225729 4.7226019
1.8749818 1.1733935 4.4836464
1.7008553 1.219744 4.6436219
1.701027 1.2164311 4.6445036
1.7562073 1.4327179 4.5199428
1.7861334 1.1787432 4.574985
1.5436139 1.3808296 4.7281756
1.8623142 1.3593208 4.4330239
1.9344839 1.1317328 4.4302182
1.6211977 1.2988409 4.6894741
1.7759781 1.169421 4.5880423
1.6208403 1.2968471 4.690402
1.4749302 1.1138141 4.8595104
1.7559608 1.1378415 4.617487
1.9261945 1.316306 4.3745742
1.5092566 1.2628132 4.7908182
1.7032958 1.0556929 4.6915269
1.8962455 0.959858 4.5289931
1.656525 0.98971552 4.7518611
1.8989289 1.0151676 4.5087838
2.3842785 1.0450909 3.7287259
1.7868227 1.4164973 4.4942374
1.5967991 1.203972 4.7390194
1.7013261 1.1562437 4.6629181
1.8358772 1.3599974 4.4620118
1.7372556 1.167502 4.6260633
1.5939889 1.0126033 4.7972369
1.5088782 1.3385994 4.768373
1.7649604 1.4378151 4.5092692
1.8189363 1.3771899 4.4742117
1.7388785 0.96192509 4.686615
1.7341683 1.3330117 4.575666
1.8747766 1.1750522 4.4833164
1.6277387 0.92603564 4.794096
1.9538053 0.91347599 4.4785767
1.5744196 1.5113922 4.6612825
1.9605997 1.1607412 4.3890996
1.5413762 1.0043119 4.8408899
1.7838403 1.1919156 4.5730367
1.9594257 0.94290113 4.4628491
1.88857 1.0070827 4.5226855
1.8641332 1.3595959 4.4308801
1.8672614 1.1676857 4.4940019
1.5364927 1.4386322 4.7158127
1.9473735 1.2262756 4.3818703
1.7984365 1.2544264 4.5378141
1.6336247 0.93978667 4.7853589
1.7009377 0.89568901 4.7399549
1.7696372 1.4526358 4.4992399
2.260565 1.1463509 3.9435723
1.7547016 1.4218525 4.5252438
1.9147265 1.0240079 4.4883795
1.695847 1.0493252 4.7001061
1.6762807 1.0478323 4.7178755
1.4407008 1.3149232 4.8260312
1.7219664 0.91988182 4.7142391
1.7609638 1.4013038 4.5260558
1.6584072 1.457004 4.6055455
1.8190343 1.4063929 4.4636955
1.8377041 1.3326045 4.469707
1.6294361 0.93144959 4.7911763
1.7755365 1.107695 4.6079016
1.9757401 0.95461673 4.439847
1.6254836 1.499334 4.6210518
1.9423999 1.0521764 4.4475732
1.6421205 1.500881 4.6056223
1.5705185 1.4316111 4.690289
1.6583028 0.99702024 4.7482395
1.7716913 1.1033757 4.6129928
1.6954789 1.1813757 4.6604881
1.7020999 1.2188002 4.6427746
1.9361459 1.1185015 4.4327602
1.7892337 1.2129489 4.5608144
1.7111019 1.4008276 4.5751777
1.5427922 1.4931196 4.6934147
1.8685833 1.2835345 4.4529862
1.7178844 0.91659939 4.7188692
1.8811926 1.0074676 4.5305696
0.64449608 1.4058425 5.1901565
1.7977458 1.1603677 4.5692296
1.5966524 1.0077218 4.7964749
1.6093683 1.4190596 4.6614785
1.5944467 1.5081891 4.6452613
1.8118526 1.1255201 4.5660634
1.8675981 0.87635171 4.5847898
1.9371881 1.2651652 4.3801103
1.8370003 1.0529593 4.5631127
0.12629218 1.4958869 5.2662153
1.8572065 1.0871835 4.5310817
1.8510656 1.0836481 4.5387201
1.8044701 0.88538969 4.6462607
1.6558797 1.3136338 4.6545677
1.6028773 0.97249675 4.801403
1.9848727 1.0413784 4.400444
1.676833 1.4762582 4.5820456
1.7827624 1.4069085 4.5018291
1.7761036 1.1099129 4.6066566
1.8987502 1.2028619 4.4470778
0.33152249 1.4976981 5.2393665
1.5905104 1.249758 4.7303629
1.5360048 1.3964312 4.729404
1.9718018 1.016314 4.4245906
1.6203693 1.1728621 4.7287359
1.9301255 1.1117636 4.4420419
2.3392973 1.1061629 3.8013325
1.8641648 1.0567079 4.5333652
1.6860124 0.96503031 4.7333932
1.9171687 1.2978803 4.3920975
1.7598391 1.3857718 4.5325408
1.7081367 1.2280785 4.6342816
1.8140544 1.2134576 4.535316
1.7701184 1.1956645 4.5854273
1.8079295 1.0300645 4.599802
1.7553256 1.1140193 4.6254959
1.5763695 0.99740452 4.8156052
1.8723546 1.1696317 4.4877887
1.524223 1.234156 4.7878566
1.6798074 1.4474659 4.5890093
1.6565194 1.4777051 4.6003284
0.10289799 1.4855765 5.2707067
2.0379426 1.2425268 4.2595496
1.7230322 1.2497358 4.6134658
1.6442338 1.0014613 4.7589407
1.8885527 1.2722937 4.4344659
1.5656072 1.2496799 4.7506566
1.9220082 1.1004049 4.4551992
1.5530523 1.3731617 4.7229695
1.6954913 1.4601663 4.5699463
1.7170733 1.3550463 4.5847774
1.7065922 0.94660646 4.7204351
1.4399955 1.2927225 4.8330588
1.8655579 0.89270794 4.5821042
1.8904973 0.92774624 4.5450554
1.9007065 1.1224316 4.472054
1.504506 1.2234174 4.8060498
1.5088906 1.214663 4.8053055
1.6152279 1.0809175 4.7602243
1.7711762 1.4470772 4.4996262
1.7092727 1.3784782 4.5844073
1.9344519 1.2811944 4.3775601
1.4931108 1.487821 4.7345181
1.6077687 1.1723261 4.7394271
1.9499592 1.0600019 4.4361367
1.7185308 0.89830554 4.7234864
1.895431 0.9685598 4.5271964
1.5274181 0.92462105 4.8735185
1.7550267 1.368363 4.5433054
2.3324792 1.0897863 3.8247929
1.833172 1.3266249 4.4767056
1.7195514 1.3454984 4.5855775
1.7386894 1.1442057 4.6319699
1.9575032 1.1928803 4.3815169
1.6870102 0.95888323 4.7342801
1.6385758 1.4224192 4.6348391
2.4280295 1.0544394 3.6084173
1.5647647 1.0180533 4.8189149
0.10563801 1.4697665 5.2743487
1.8182632 1.3796015 4.4740787
1.7240417 1.0945222 4.6609163
2.2066979 1.1743182 4.0287294
1.7535704 1.1022438 4.6308064
1.9036779 0.91789925 4.5336952
1.7872136 1.3691396 4.5103979
1.6383181 1.4952193 4.6109543
1.8728318 0.98529947 4.5464344
1.9685217 0.9681266 4.4441242
1.7233137 1.078594 4.6664085
2.3837306 1.070715 3.7160211
1.8973079 0.96406889 4.5265326
1.6064874 0.96894825 4.7994738
1.8156966 1.4165797 4.4636326
2.4979789 0.97915316 3.4355931
0.18410005 1.5244867 5.2534084
1.5850675 1.3564162 4.7019567
1.9871472 1.0185282 4.4052777
1.5936357 1.4814167 4.6547437
1.6700641 1.4528193 4.5962472
1.8181419 1.3799233 4.4740944
2.3462524 1.1031491 3.7872496
1.634961 1.0181528 4.7619548
1.8587071 1.1172482 4.5198007
1.6033382 1.3418845 4.6911898
1.7382268 1.3612902 4.5622706
1.9775296 0.91350043 4.4507074
1.6022947 0.96586132 4.8037419
1.7433157 1.0699353 4.6503892
1.5819876 1.3879257 4.6946106
1.9459594 0.9691391 4.4702311
1.9562716 1.2313267 4.3692245
1.7039344 1.0497407 4.6927195
1.88906 0.92500937 4.5474372
1.5847814 1.3750805 4.6963329
1.917962 1.3217365 4.3824124
1.9297316 0.90100849 4.5098944
1.8469414 1.3954029 4.4371166
1.6320996 0.86388308 4.8077183
1.7485951 1.0663223 4.6465044
1.9188486 0.88964665 4.5255065
1.9046217 1.0292274 4.4980125
1.9569095 0.91853166 4.4734054
1.6934986 1.2523758 4.6400776
1.7899457 1.0822005 4.6016483
1.7202843 0.88000351 4.7270775
1.7226315 1.3132077 4.5932779
1.6326517 0.96708709 4.7784662
1.6709704 1.1980989 4.6773367
1.8446435 0.981453 4.5772524
1.5260268 1.4858565 4.7092581
1.6608628 1.0015621 4.7447338
1.5031947 1.2727765 4.7924623
1.8588502 1.1631749 4.5046134
1.7195224 1.3429322 4.5864549
1.6033623 1.0691831 4.7733979
1.6708772 1.257001 4.6590958
1.7254171 1.1149831 4.653409
1.9568286 0.99792421 4.4483581
1.1238285 1.4361581 4.9872255
2.3218026 1.1184297 3.8333654
1.9270656 1.2226 4.4074268
0.63287026 1.4788766 5.1748438
2.0541897 1.2348977 4.2401371
1.832782 1.3265692 4.4771452
2.4905717 0.99520594 3.4504855
1.8967711 1.1488858 4.4676466
1.5898908 1.3809106 4.6902189
2.3168931 1.1208946 3.8426251
1.9563857 0.99814564 4.4488068
1.9491289 1.005612 4.4548931
1.434037 1.3665911 4.8154979
1.6183131 1.0441124 4.7683477
1.5019995 1.2760046 4.792408
1.5579553 1.1790354 4.7778134
1.7179445 1.3605696 4.5821099
1.6770304 1.1871687 4.6753082
1.8553426 0.94694561 4.5765877
1.879318 0.96352041 4.5461893
1.7453097 1.0617561 4.6509871
1.9130628 1.1973106 4.4326062
1.6913239 0.90460587 4.7459226
1.6431693 1.457961 4.6190228
1.5413563 1.0352287 4.8322134
1.7297423 1.3477061 4.575058
1.5256277 1.2054996 4.7952309
1.8106453 1.1298906 4.5659013
0.27214462 1.5113029 5.2453313
2.4415159 1.0380769 3.5797014
1.5821599 1.5083276 4.6557293
1.6753378 1.190583 4.6757669
1.9927717 1.0634117 4.3832755
1.8675559 0.92555374 4.5702133
1.9101827 1.0056276 4.4993157
1.671912 1.2180905 4.6703186
0.34235752 1.5479565 5.2249923
1.8439244 1.0929798 4.5432668
1.3553799 1.4033587 4.8589377
2.0127962 1.2534362 4.2891145
1.5476458 1.3607575 4.731164
1.8391178 1.0605583 4.5585365
2.3058822 1.1263192 3.8630831
1.7532421 1.3143106 4.563262
1.7365271 1.3347726 4.5727944
1.6522217 1.2636571 4.6735563
1.9231097 1.1822392 4.4261742
1.6165109 1.2910147 4.6959109
1.7342227 1.1665239 4.6292357
1.4161922 1.3957618 4.8194952
1.7208509 1.1047274 4.6607647
1.5593626 1.4281133 4.7005959
1.7233188 1.3145401 4.592186
1.7485678 1.2880319 4.5765371
1.7425735 1.3640835 4.5570726
1.7620338 1.0470926 4.6395469
0.40975153 1.505654 5.2229395
1.9409642 1.0293134 4.4567137
1.8552517 1.3055229 4.4600372
1.8595855 1.2884097 4.4612532
0.3493115 1.5124743 5.2326174
1.4990016 1.5013301 4.7256937
1.8504813 1.054571 4.5485373
1.6737126 1.4582498 4.5910439
2.4517801 1.0304842 3.5537844
2.3255281 1.1017152 3.8338258
1.8484129 1.3847497 4.4393473
1.8936722 1.2625306 4.432076
1.66508 1.1365669 4.7012782
1.649902 1.4455541 4.6170769
1.7317847 1.3587999 4.5693765
1.6265602 0.86438835 4.8121452
0.34253195 1.5377598 5.2275038
1.6501791 1.4427521 4.6177554
1.8593788 1.3725084 4.4315438
1.6763154 1.0525814 4.7164478
2.4513419 1.030949 3.5548191
1.740654 1.3428153 4.5660949
2.4201617 1.0176591 3.6521018
1.7919273 1.2612071 4.5422029
1.9485253 1.1269559 4.4152927
1.8028073 1.296832 4.519063
2.3056076 1.1266093 3.8635099
1.747838 1.4375992 4.5266581
1.646529 1.4931636 4.6042266
2.4562225 1.0273031 3.5421889
1.6622965 1.3335001 4.642489
1.7196966 1.3700686 4.5772648
2.4159415 1.0299001 3.6563554
1.7579786 1.0666325 4.6374941
1.7229712 1.3597555 4.5775642
1.6622 1.2095579 4.6815639
1.6064535 1.0521312 4.7757964
1.8802994 0.97260016 4.5423465
1.9994528 1.2560508 4.3056116
1.7833714 1.0961685 4.6038003
1.6400502 1.3976008 4.6416221
1.8988179 1.2483218 4.4311919
2.0792572 1.2262278 4.2080803
1.7715036 1.324986 4.5415053
1.7337061 1.438799 4.5402875
2.2498944 1.1240295 3.9739013
1.4616395 1.4501905 4.7700753
1.8430462 1.0519638 4.5571404
0.34082192 1.5361012 5.2282143
1.8322773 1.0360649 4.5732431
1.9003193 1.2349685 4.4341526
1.9494077 1.1087033 4.4204621
1.9028159 1.0532352 4.4923263
1.6634839 0.88977695 4.7741895
1.6072761 1.0663369 4.7710166
1.7215463 1.3674705 4.5763578
1.5946566 0.96744019 4.8094559
0.015311377 1.47157 5.279623
1.9112238 1.0976931 4.4683857
1.8737975 1.0413893 4.5278845
1.7209911 0.87536997 4.7277451
1.7263445 1.3557119 4.5756674
1.6879261 1.2931718 4.6321883
1.8023199 1.3374954 4.5056581
1.9513444 1.0631604 4.4334564
2.3365676 1.096077 3.8126178
1.8719696 1.0586083 4.5243926
1.6866037 1.4700098 4.5750022
0.405671 1.5069009 5.2234416
1.7608041 1.1911682 4.5959811
1.6350559 1.5037564 4.6110225
1.4979867 1.3069636 4.7862096
1.6043189 1.2941713 4.7052426
2.0576506 1.2370492 4.2344589
1.7360444 1.3338268 4.5735774
1.8864948 1.2441492 4.4466643
2.4217398 1.0523959 3.627285
1.5934312 1.2669833 4.7226963
1.7865529 1.3752098 4.508975
0.34088358 1.5618923 5.2217741
1.9281809 1.2930739 4.380744
1.9408064 1.2343085 4.3869028
1.6641603 1.2099431 4.6797156
2.3754046 1.1132908 3.7125883
1.7391434 1.3546146 4.5636177
1.8605025 1.2901888 4.459619
1.5956334 1.2674532 4.720726
2.3342643 1.0694642 3.8311067
1.984553 1.0894943 4.3845205
1.3846419 1.403116 4.8392553
1.871124 0.88127947 4.5796309
1.8786014 1.0451112 4.5215187
1.8912101 0.97287714 4.5304627
1.9371959 1.2612964 4.381506
1.9721516 1.1041543 4.3946843
1.7400703 1.3417741 4.5670128
1.5307271 1.3839436 4.7374635
1.7366753 1.353627 4.5663562
1.8655484 1.3961495 4.4159365
1.8120357 1.2650743 4.5202098
0.20060755 1.5234118 5.2517767
1.1718134 1.4321896 4.9623737
2.2915084 1.1350425 3.888268
2.126127 1.2053511 4.1469016
2.2496405 1.1215127 3.9755106
2.2934399 1.134017 3.8848555
1.5748079 1.3299919 4.718658
1.7275761 1.1082553 4.6534576
1.4958626 1.2101452 4.8164215
1.8646011 0.99022371 4.5536685
1.5860037 1.2722104 4.727231
1.5344465 1.3235266 4.753067
1.9339906 1.0873222 4.4457283
1.6337788 1.0708063 4.7476788
1.7242833 1.1233608 4.651897
1.7097495 1.1086212 4.6697764
2.3749764 1.115351 3.7124672
2.0268404 1.2651813 4.2658062
1.550494 1.264401 4.7582912
1.9292612 1.1147304 4.4420471
1.717461 0.87491709 4.7310529
1.7687535 1.2174267 4.5797639
1.4985715 1.4641165 4.7377114
1.6822588 1.3705384 4.6123114
1.8841621 1.2796342 4.4368577
1.9569777 0.91388202 4.4747691
0.83373326 1.4524604 5.1141262
1.5439612 1.3635294 4.7332559
1.5170547 1.075833 4.8391829
1.9971278 0.89676976 4.4323697
1.9271969 1.2935398 4.3817511
1.6692462 1.4775306 4.5886726
1.9917017 1.2591817 4.3144565
1.5468448 1.48903 4.6914206
1.6382995 0.96199417 4.7751894
0.82222903 1.4629594 5.1157198
1.6618984 1.4828188 4.5936699
1.9485 1.0017085 4.4568844
1.6259705 1.2689844 4.6946731
1.9151869 1.2627167 4.4071231
2.3761771 1.1063421 3.7146473
1.6798283 1.1818136 4.6744571
1.8600994 0.9622916 4.5669632
1.7002429 0.93201715 4.7302704
1.9186528 0.96951401 4.5012021
1.639405 0.89570582 4.79286
1.5601848 1.2976587 4.7404704
1.7672383 1.4338156 4.508348
1.9930074 1.2587404 4.3129401
1.6504539 1.2877023 4.6675711
1.9170305 1.0571505 4.4750934
1.7039276 1.4709617 4.558188
1.6931982 1.4680425 4.5694351
1.6752341 1.1445136 4.6899333
2.3453317 1.1019418 3.7899742
1.6604978 1.2740439 4.6629896
1.7887387 1.0564861 4.6107669
1.9952052 0.9974727 4.4023566
1.494777 1.4765403 4.736764
2.3608537 1.0922145 3.759377
1.9305469 1.1801064 4.4182162
1.5067626 1.0741233 4.8473678
1.8885498 1.1843915 4.4648881
1.6782824 1.4874601 4.5768743
1.5079107 1.2672265 4.7905312
1.8116379 1.3344136 4.4969511
1.5909286 1.4014313 4.6828365
1.8536328 0.96638483 4.5724897
1.4810945 1.4602953 4.752316
2.3433082 1.1037914 3.7935729
1.6649989 1.4954604 4.586524
1.6142473 1.3089465 4.6922507
1.8397949 1.0202034 4.5703917
1.7111706 1.3595492 4.5888991
1.9499816 1.0553021 4.4376659
1.7514488 1.4466977 4.5198545
1.9152206 1.08692 4.4674063
1.7887409 0.96746325 4.6376166
1.716141 1.2320892 4.6255646
1.5295326 1.3049108 4.7625675
1.8880782 1.1473051 4.4778862
2.408968 1.0635064 3.6553321
1.7638021 1.1372051 4.6101165
1.8337547 1.3884014 4.4541774
2.1835916 1.1606454 4.0739417
1.7190274 1.3515073 4.5840859
1.6988488 1.460119 4.5667667
1.7805285 1.296802 4.5418811
1.6806554 1.1803274 4.6741743
1.7442702 1.3493389 4.56037
1.7196805 1.2825612 4.6060605
1.6199973 1.0519778 4.7646785
1.7228528 0.91042888 4.7161326
1.8545474 0.9509095 4.5762215
1.8918695 1.2298415 4.44556
1.5487396 1.4266758 4.7097063
1.5369724 0.9467724 4.860229
1.99417 1.2586737 4.3114648
1.8898323 1.1851711 4.4631872
1.6346002 1.459877 4.6260514
2.3539298 1.0966214 3.7731338
1.6234001 1.3146636 4.682632
1.6594521 1.3905315 4.6265712
1.9112362 1.0624558 4.4799128
0.3459096 1.5103656 5.2337403
1.817113 1.3841925 4.4736819
1.86479 0.93618268 4.569931
1.5863847 1.5204496 4.6481404
1.8689435 1.2744337 4.4557691
0.33196005 1.5258477 5.2322884
1.9208771 1.2238415 4.4142585
1.8568223 1.316294 4.4545116
2.0039618 1.2484133 4.3026328
1.6822971 1.1774595 4.6735859
1.7509062 1.1811134 4.6087537
1.6376249 1.1461561 4.7221274
1.6912571 1.2266196 4.650238
1.0689046 1.4760851 5.004385
1.7389616 1.2483597 4.5987492
1.6952641 1.4688922 4.5671811
1.5259275 1.4884962 4.7084985
2.4398139 1.0409447 3.5828888
1.8877975 0.95399529 4.5399756
2.0235538 1.2602875 4.2721372
1.2234728 1.4218017 4.9359083
2.1235604 1.2090368 4.1493125
1.9160709 0.92122006 4.5190086
1.4913399 1.4586334 4.7449994
1.5074654 1.3227773 4.77424
1.6910354 1.2941468 4.6290236
2.3200285 1.117051 3.8378763
3.8195579 0.67044491 10.070293
3.8365951 0.74897999 9.4049492
3.8994725 1.270698 11.042707
3.8382432 0.77133751 9.3196363
3.8521616 1.262077 11.503191
3.8249002 0.74435419 10.360025
3.8220155 0.80789894 10.659225
3.820622 0.84085339 10.784472
3.8382654 0.7511484 9.4588718
3.8247354 0.74462944 10.364716
3.8897243 1.3360076 11.318788
3.805944 1.3805387 12.058009
3.8426607 0.79164273 9.3419714
3.841007 0.78409064 9.3332233
3.8127582 0.62368685 9.4144096
3.8146005 0.67328 9.1634007
3.8397708 0.76465034 9.4146576
3.8995423 1.2877936 11.089118
3.822468 0.74656451 10.418206
3.8884561 1.2577204 11.139178
3.8313022 0.71986336 9.4129124
3.8502972 0.99172813 10.859319
3.8858063 1.2872194 11.242438
3.8269231 0.71211773 9.3065796
3.8432012 1.0639625 11.137671
3.8379984 0.73944837 9.5780935
3.8942363 1.2467475 11.040995
3.8113446 0.66655666 9.1154566
3.8192351 0.70751196 9.126852
3.826664 0.6790095 9.6996593
3.8142188 0.71741134 8.9919853
3.8293421 0.69214672 9.7071981
3.8177664 0.76692122 10.578946
0.51953262 6.2262635 21.415453
3.8310225 0.72105563 9.3922358
3.821418 0.70701581 9.1799536
3.8604321 1.2659612 11.439238
3.8329551 0.74678278 9.2954226
0.85473949 6.1373863 21.115993
3.8180482 0.84266448 10.822476
3.8516433 1.0236208 10.935753
3.8367376 0.79980254 10.373487
3.8309402 0.79204482 10.453978
3.8203001 0.76854467 10.544787
3.8185656 0.84399015 10.819992
3.8159337 0.64089483 9.4048796
3.8367026 0.72948569 9.6543608
0.91973668 5.8026056 20.857668
3.8337059 0.71414649 9.6679258
3.8977573 1.3376901 11.238851
3.8517103 0.97999418 10.804468
3.8923812 1.2047607 10.943637
3.8933785 1.3196496 11.241477
3.9002271 1.2527134 10.981302
0.73839456 6.1664667 21.221867
3.8592284 0.96615189 10.646066
1.3066696 5.9563637 20.628279
3.8179533 0.71037519 10.343935
3.8821018 1.3442847 11.412057
3.8440819 0.78436089 9.4404135
3.8183489 0.71089339 10.338168
3.8431756 0.82617456 10.361048
3.8444998 0.91828102 10.705493
3.8633788 0.89659649 10.23189
3.8897436 1.2136824 11.004003
3.8910046 1.2857018 11.182486
1.1701455 6.0514407 20.807276
3.9000671 1.2164435 10.872322
3.8099875 0.81890631 10.850908
1.6009479 5.886045 20.308767
0.42077759 6.0414729 21.372585
3.8619354 0.96141052 10.582204
3.8091156 0.78515899 10.761064
3.8193817 0.66230887 9.3740635
3.8941364 1.2270367 10.986132
3.888186 1.063509 10.502924
3.817049 1.4051101 12.028171
3.8291996 0.80241662 10.527061
3.8030434 0.57400584 9.8700771
3.8307071 0.98764932 11.076105
3.8222733 0.73439682 9.0898886
3.8349593 0.75850689 9.291441
1.601742 5.9028478 20.318995
3.8204 0.87360561 10.884055
3.8230507 0.71979499 9.1637974
0.90673858 6.1187887 21.064133
3.886308 1.373859 11.438046
3.8275394 0.78576958 10.489675
3.8230257 0.72097564 9.1582537
3.8841491 1.3584974 11.424343
3.8812325 1.3968604 11.533534
1.5872961 5.912921 20.33963
1.2396071 5.9996014 20.714769
3.822016 0.95244831 11.077634
3.8178761 0.94989967 11.113583
3.8154602 0.81242973 10.76356
3.8912892 1.4132204 11.477852
3.8687041 0.97577494 10.514972
3.8375006 0.73255217 9.7558451
3.8278959 0.79834592 10.533261
3.8446434 0.8283276 10.338493
3.8887832 1.0194578 10.235306
0.97474611 6.1004243 20.998945
3.8335586 1.3044015 11.734715
3.8955264 1.2080088 10.910552
3.8553898 0.96858621 10.7146
1.7639201 5.8424845 20.116791
0.98338789 6.1000686 20.99181
1.6176807 5.8865871 20.292759
0.89039421 6.0864768 21.05691
3.827656 0.73332077 9.2169704
3.8296077 0.74263495 9.2238932
3.824559 0.68758917 9.3878174
5.3671961 4.3842731 17.648838
6.0919328 3.6899052 18.541716
7.1018839 4.9103804 19.771463
7.6547852 7.3606248 20.606611
6.959743 4.9193974 19.616335
8.0132351 5.0843258 20.727583
6.5672936 3.8504062 19.116989
5.4929409 6.3426013 18.032948
7.3279591 4.9806781 20.019003
7.3658643 7.2107978 20.294401
7.3647609 7.2106318 20.293249
7.5840058 3.0786862 20.23909
5.5330057 6.2812109 18.074808
5.5044947 6.2608943 18.035627
5.4125986 3.7118092 17.670464
6.7259226 5.7358994 19.42705
5.2251196 5.6975203 17.594423
5.2827568 4.7768025 17.56855
5.9636817 5.3210969 18.492685
5.0541677 3.3695054 17.166676
4.9916859 6.4009671 17.38443
5.5955296 3.2103021 17.898283
4.7498546 3.4515376 16.734001
4.7619939 4.9959464 16.8717
5.5504351 5.1864367 17.960052
6.1723146 4.6935987 18.69179
5.3648353 4.9481316 17.693953
4.8409925 3.1375015 16.856117
4.6356516 4.9538832 16.685259
9.0321245 5.4478292 21.706427
6.7915831 3.0324433 19.366743
5.9868159 4.0743647 18.426956
7.1147952 5.6624742 19.846109
5.4421587 3.129674 17.693396
5.24826 3.8450141 17.454981
7.1890302 3.9756951 19.822021
4.8939672 3.2348092 16.935091
4.9841719 4.0560074 17.102129
5.2797527 4.3285713 17.527615
5.6730127 4.8810296 18.087688
4.6214676 4.0196829 16.577799
8.5056896 4.3001418 21.171595
4.9124823 4.1901937 17.010426
5.0568347 5.0177579 17.286379
5.2240205 5.3276157 17.547321
8.2733402 4.3943276 20.950844
4.9194255 3.5745201 16.983915
7.7659431 6.3042336 20.584661
4.9446301 3.1361418 17.005121
7.6130714 6.6568289 20.471905
4.8829412 4.3412828 16.980263
5.8537531 5.3070369 18.355787
4.7310963 4.8515205 16.811682
5.1130991 4.3569546 17.302839
6.9191604 5.5930743 19.627005
8.1885576 4.6631451 20.878201
4.7948346 3.1334846 16.788977
5.6035166 6.3391738 18.172276
8.2052174 5.0647092 20.914513
4.6484623 3.7705517 16.60132
4.6783199 3.3324082 16.624281
7.2232513 6.556603 20.059271
6.3657699 3.8853896 18.880352
5.8604131 3.459795 18.245623
4.5548573 4.3736329 16.507908
6.1192307 4.6762547 18.626284
7.5773873 3.7683737 20.233013
7.7544327 4.4104061 20.4338
4.8353224 3.3754506 16.855171
7.2157092 6.5529227 20.050903
4.7517619 2.8642843 16.720871
4.7829857 4.3670793 16.83983
5.0693951 4.6571956 17.267939
8.0666113 4.7731166 20.763405
4.7459469 3.0064869 16.714613
4.847681 3.3541851 16.872255
8.199399 4.205327 20.87324
4.6289425 3.5387189 16.560028
6.9280324 5.6410885 19.641348
8.7726212 5.1296167 21.453615
8.2685537 4.6066275 20.953762
8.2352266 5.132803 20.947557
7.7254796 4.300787 20.40011
4.5324888 3.0956435 16.398783
6.3615189 3.8833244 18.875206
6.9266796 5.6428785 19.640038
4.9038677 3.1315472 16.946638
4.7130857 2.8455012 16.663633
5.1446691 5.0945592 17.414389
4.6947303 3.1597552 16.642868
4.5553365 2.9591424 16.429964
5.0742154 3.1023095 17.187973
4.8361621 4.4024282 16.918858
4.7550445 2.9306743 16.726629
5.3087225 4.4101272 17.572603
5.3407159 3.9263837 17.584354
5.3383303 3.9238443 17.581011
5.1612492 2.956414 17.307501
8.2978611 5.8767881 21.061403
5.0656109 3.792568 17.20056
4.7050738 4.925159 16.78231
6.8369532 4.714035 19.466202
5.0080724 5.2720246 17.248053
6.0253549 5.3898005 18.574902
5.2146492 4.7971978 17.47892
6.6457386 6.1064315 19.37838
5.1136942 5.0485654 17.367373
4.9188476 6.2114315 17.255138
6.1057258 4.6462312 18.60771
6.9219518 4.4311976 19.545307
6.6445584 6.1055341 19.376951
7.649837 5.0593052 20.359991
6.1531677 4.9051895 18.684946
8.4500122 5.7180448 21.192339
4.6105442 3.9128256 16.554287
4.757895 3.0841479 16.733812
5.0047784 4.7880845 17.191061
5.0781674 4.2954402 17.249987
4.8410459 3.2452464 16.859131
9.0206289 6.1784153 21.749729
7.7980967 3.1654267 20.461628
5.2502546 5.2132578 17.569395
6.1428986 4.5263963 18.644642
5.061718 5.5585852 17.356808
5.7874656 4.3978543 18.195581
6.6661987 4.1662388 19.243284
4.5970097 3.6122868 16.516308
4.5570846 3.5141742 16.451769
7.9219027 4.7764349 20.619619
4.5822754 3.8671989 16.509386
4.7252483 3.3810852 16.695171
7.6736331 4.2433267 20.344727
4.8022842 4.6875358 16.896658
8.516386 5.4485908 21.23513
5.8790359 4.0379457 18.290369
7.6948547 3.7153478 20.354906
6.1756258 3.7609658 18.646664
7.0808887 5.0249267 19.756508
7.0656896 5.0224538 19.739779
5.9573689 4.3150463 18.4035
5.102622 4.3855906 17.290648
5.9766579 4.5293612 18.441214
4.9794497 3.9199591 17.086948
7.711771 4.4330268 20.39093
4.6945176 4.0093446 16.684242
5.4486146 6.2536817 17.963205
4.7204556 5.0481443 16.818293
8.5491714 5.5009499 21.269335
6.2028761 3.7714381 18.680216
5.3097148 3.0679548 17.513405
8.792057 4.7493796 21.454062
5.620553 5.8204937 18.122784
4.615521 4.2580585 16.587442
5.844245 4.4899926 18.273455
5.0307698 4.6643701 17.215275
5.8825512 4.1390357 18.299994
4.6511183 2.9130845 16.572668
4.5391479 4.0557051 16.458424
4.7935467 2.9189494 16.782837
8.8218422 4.8375607 21.484976
8.919919 4.5045676 21.562941
5.2720323 3.9974401 17.495588
5.2676501 3.9894116 17.489185
6.5626297 5.2871113 19.198824
6.2516842 5.7123451 18.88014
4.4736128 4.2659459 16.377428
6.5645213 5.3445621 19.206194
6.1789684 4.7748275 18.705814
6.7208424 5.5099416 19.398878
9.1026831 5.9929233 21.806841
4.8328495 5.1957383 16.995214
7.9945498 4.6716318 20.687181
4.9239674 5.2342844 17.127291
6.2474227 5.7371221 18.87788
5.6139712 3.1450932 17.921555
6.095129 4.9217997 18.616116
5.2273173 5.162396 17.533123
8.6435471 5.4440651 21.353226
7.164022 5.5123596 19.885202
4.7093039 3.0240583 16.661026
7.6675253 3.6720119 20.326015
4.5217071 4.4758334 16.468195
5.292644 3.2672708 17.493839
5.3465891 3.963527 17.594259
7.4461775 4.0578856 20.100863
4.5867414 3.3841574 16.490295
4.5263858 3.8773215 16.426722
4.5872569 2.8752196 16.476505
5.4118977 5.6379218 17.832315
5.6433954 5.6743813 18.13353
8.130353 3.4105921 20.79669
8.05828 3.4059484 20.724642
8.8228483 4.5455055 21.475258
4.976151 4.3783178 17.114521
8.1251335 6.2988095 20.935606
7.8552699 3.1611531 20.52054
8.1219349 3.4160726 20.788275
6.2409024 4.5038733 18.761463
5.7692666 4.3235841 18.167675
7.4517417 6.4677882 20.28546
9.238349 7.302351 22.053219
4.6106434 4.6465511 16.615931
6.7838445 4.8002949 19.412098
7.6888509 4.1907001 20.358784
4.450089 3.5253785 16.290897
7.9539089 6.032155 20.743021
8.1102209 3.4172304 20.776583
4.9580684 3.960382 17.059271
8.1150331 4.4260459 20.796822
8.5691805 5.50809 21.288477
8.6670303 4.3338099 21.324703
8.8623228 5.232017 21.541063
4.6497097 4.8332157 16.692299
5.1085925 4.1041827 17.278584
4.9221792 5.2297397 17.124264
7.4918766 5.9821897 20.27379
4.5770822 4.2084389 16.526682
6.189476 4.2348495 18.683805
4.6489372 2.8715427 16.568773
5.0279574 3.8905878 17.15332
5.096818 3.3473647 17.225712
8.3007975 6.3009248 21.10326
4.6856527 2.8802412 16.623482
5.1453185 4.4977517 17.358263
5.0592275 4.4073629 17.232475
6.9415579 4.0934186 19.552618
8.8535948 5.1590581 21.529182
6.156642 4.3400497 18.649797
8.3450403 3.4016075 21.008392
9.0133629 6.2528281 21.749769
5.1166792 5.6310191 17.440596
7.5475521 6.0589962 20.338652
8.7303581 5.1187882 21.414175
5.1821394 5.8685718 17.560217
4.9329123 4.3070722 17.048143
5.6537495 3.3050227 17.976231
5.210753 2.9978936 17.376623
8.7598572 4.7420692 21.424093
4.6265173 3.0672483 16.539188
4.8978043 5.146307 17.080513
8.8634377 5.2286959 21.541893
4.5389071 3.8829973 16.445824
9.0185509 5.4961777 21.697302
7.0686069 3.3081968 19.679258
6.9319963 4.0679874 19.541018
7.6704702 3.0882199 20.329882
5.8759928 4.2860012 18.300116
6.5921259 3.0707519 19.13496
6.605433 6.0657649 19.328255
8.1275997 4.4400549 20.809704
7.0696487 5.9164538 19.822861
1.5707213 2.9032598 10.515304
8.9501781 7.235209 21.796535
4.5367746 3.3752618 16.415009
7.9867158 6.0406642 20.77598
8.3949299 4.4871135 21.07131
9.071291 6.2331653 21.799078
8.2341547 3.4665601 20.899326
4.9540186 4.4944248 17.093229
4.622622 2.8318739 16.528925
6.06564 5.5586491 18.641502
6.9373651 3.5876446 19.534897
7.6485515 5.9555511 20.431137
6.1697478 4.8533125 18.700769
8.3701649 5.3796411 21.092505
8.5950689 4.7111025 21.269468
7.5751572 6.1520638 20.376434
8.7806273 5.5152721 21.48387
6.7207127 3.1142111 19.284681
8.9248533 4.6393318 21.571619
4.8068233 5.0578685 16.942396
4.9114628 5.1619668 17.101391
8.3807526 4.3586154 21.053652
5.0430222 4.010304 17.181553
8.6943541 4.6238108 21.358976
5.5028958 5.0584984 17.885611
4.9280829 4.288321 17.039875
