ply                 
format ascii 1.0    
element vertex 1260
property float x    
property float y    
property float z    
property uchar red  
property uchar green
property uchar blue 
end_header          
0.393162 -0.354448 3.72187 121 76 81 
0.0618864 0.368356 3.83686 136 72 73 
-0.737569 -1.86474 3.85077 168 93 90 
-0.215953 -0.702869 3.53133 22 10 12 
-0.50948 0.72852 3.74119 205 140 146 
-0.221283 1.16346 3.73765 124 72 76 
-0.608175 1.08953 3.84258 108 67 73 
-0.330142 -0.565334 3.58776 151 104 96 
0.0240331 1.33415 3.67881 110 68 70 
-0.605353 -0.411433 3.86623 157 73 73 
0.385253 0.578725 3.85129 145 116 110 
0.106889 -0.732041 3.50718 172 140 127 
-0.702929 0.0960174 3.78635 166 106 106 
-0.0171486 -0.853125 3.49202 100 70 59 
-0.023225 -1.79285 3.54721 145 78 69 
-0.270995 -0.811896 3.5203 144 107 88 
-0.126954 -1.79902 3.54438 155 104 85 
-0.502101 0.486024 3.88801 129 101 124 
-0.164319 1.11978 3.75516 144 65 70 
0.393349 -0.192103 3.7092 152 93 99 
-0.297267 -0.688667 3.54992 104 83 78 
0.188402 0.996748 3.76817 135 115 114 
0.261199 0.374306 3.65703 39 22 28 
0.0124168 -0.590923 3.53109 36 27 32 
-0.354009 0.646845 3.62676 167 86 85 
0.203631 -0.155506 3.67367 53 28 34 
0.286595 0.550173 3.82634 122 81 87 
-0.509456 -0.684996 3.60587 124 94 86 
-0.436516 -0.160993 3.83362 162 77 72 
0.0501518 -0.79273 3.50036 164 128 106 
-0.567965 0.61178 3.88867 107 97 122 
-0.798528 0.479329 4.23192 178 145 162 
-0.526376 1.08432 3.81538 31 6 12 
0.121201 0.699079 3.77334 149 85 86 
-0.438096 -0.155718 3.83235 159 73 72 
-0.20237 -1.81673 3.55896 150 99 82 
0.326947 -1.04892 3.57169 74 39 45 
0.195528 0.00835599 3.64663 118 68 69 
0.437315 -0.602026 3.6906 106 52 50 
0.156844 -1.05097 3.51201 37 35 40 
-0.500972 0.507024 3.88122 216 168 182 
-0.158565 -0.413455 3.60782 40 17 23 
-0.447518 1.21656 3.73624 109 58 67 
-0.753108 -0.0875131 3.84079 162 91 95 
0.311544 0.834553 3.81858 142 123 119 
0.0766216 -0.274863 3.71567 158 75 71 
0.105316 -1.09367 3.5002 44 29 32 
-0.473835 1.29694 3.69513 146 75 79 
-0.602489 -0.410221 3.87114 150 72 70 
0.0268077 -0.787044 3.49347 166 131 111 
-0.208367 -0.796299 3.50862 81 63 61 
-0.166985 1.11768 3.7507 146 67 72 
-0.452342 0.783599 3.61449 177 107 118 
-0.624636 -1.50771 3.69069 177 146 126 
0.321387 -0.178677 3.68212 116 68 68 
0.170117 1.0225 3.75637 135 95 96 
-0.52148 0.3753 3.94003 207 139 150 
0.0902922 1.03982 3.7437 111 59 63 
-0.0774535 -0.697503 3.52624 65 41 41 
0.3997 -0.364936 3.7145 74 34 43 
-0.421207 -0.434016 3.65178 157 99 97 
0.0794172 0.00957655 3.67503 51 41 52 
-0.637711 -0.658747 3.66961 154 131 147 
-0.294737 -1.842 3.59475 142 69 62 
0.216511 0.721993 3.79136 155 91 92 
-0.835678 0.89323 4.02832 213 186 175 
-0.25559 1.39203 3.58627 125 80 83 
0.126821 0.496179 3.8192 149 68 67 
-0.628145 -0.565951 3.66386 178 136 120 
-0.0272158 -0.0407787 3.74471 160 85 90 
-0.500236 -0.0528298 3.81754 135 67 64 
-0.719926 -0.513903 3.91045 180 103 109 
-0.151869 -0.585416 3.55135 138 106 85 
-0.71237 -1.28048 3.73012 82 66 76 
-0.0256437 -1.5526 3.51199 155 80 77 
-0.577101 -0.0623354 3.81087 152 73 69 
0.402648 0.586928 3.8531 59 54 60 
-0.454775 -1.17204 3.56766 37 22 29 
-0.685513 -0.325028 3.88141 139 85 83 
0.286995 0.862466 3.80638 47 30 36 
-0.0017264 1.20491 3.69999 167 106 105 
-0.727496 -0.490949 3.9149 166 95 101 
-0.783684 -0.159338 3.88394 57 60 69 
-0.822047 -1.61777 3.88929 93 54 59 
-0.613337 -1.24489 3.6709 143 79 95 
0.162296 1.34356 3.75522 44 30 29 
0.180054 1.07044 3.7565 126 84 88 
-0.257744 1.23277 3.71068 167 104 112 
-0.543216 0.0901747 3.79666 67 26 32 
-0.24216 1.38764 3.5915 123 61 66 
0.217403 1.18682 3.76326 38 31 38 
-0.293803 -0.454459 3.61015 168 113 83 
0.00684047 1.26801 3.6758 150 102 100 
0.324786 1.09517 3.86154 117 99 89 
-0.608247 -0.0401126 3.80875 144 69 66 
-0.27844 -1.09893 3.51603 156 107 92 
0.0617251 -1.84385 3.55975 37 27 35 
-0.730416 0.0956357 3.79477 194 142 146 
0.367339 0.654281 3.83944 182 152 144 
-0.873025 -0.541483 3.98866 92 59 68 
-0.0223988 -0.674197 3.52004 27 26 31 
-0.353003 -0.744372 3.5479 98 77 72 
0.332423 -0.968676 3.58887 66 40 43 
-0.0309068 -0.67016 3.49701 26 26 28 
-0.0440689 -1.45457 3.51378 151 105 82 
0.236124 1.05596 3.78043 111 92 86 
0.105929 -0.868707 3.50121 103 86 79 
-0.207983 -0.686299 3.54033 95 75 66 
-0.000376465 1.15051 3.71509 55 24 30 
-0.27177 -0.86635 3.52011 130 38 41 
0.304868 -0.558951 3.71501 37 25 29 
0.203587 -0.155248 3.67393 52 27 33 
0.250062 0.356406 3.85033 49 15 16 
-0.739626 0.460046 4.05808 154 93 100 
-0.590452 0.303148 3.88549 41 37 36 
0.127378 0.486244 3.82601 154 70 70 
-0.625189 -0.619842 3.64222 162 131 129 
0.36362 -0.797911 3.59233 60 31 35 
0.392481 -0.383668 3.72007 155 83 84 
-0.265177 1.30622 3.66246 160 97 105 
-0.217971 -2.27973 3.76191 89 68 65 
-0.787289 -0.446841 3.37291 196 121 126 
0.377524 0.543045 3.84223 153 100 96 
0.191556 0.0353684 3.62938 126 74 76 
0.288673 0.549909 3.82278 126 87 92 
-0.798318 -0.279727 3.9121 147 99 99 
-0.409659 -0.0733402 3.8296 152 74 74 
0.175805 0.923962 3.76841 40 34 46 
-0.243526 0.0364915 3.72449 159 97 98 
-0.666646 -1.51712 3.71949 85 60 64 
0.305392 -0.559817 3.71766 38 23 28 
-0.714297 -1.75382 3.79337 153 85 84 
-0.795085 0.0624539 3.97418 143 90 98 
-0.464557 0.783274 3.57013 183 120 129 
-0.888433 -0.529637 4.00284 180 133 153 
0.366255 -1.34722 3.62624 167 127 102 
-0.524728 -1.92369 3.71 171 86 79 
0.0551182 0.466517 3.82059 55 24 30 
0.342548 -0.863187 3.58195 155 114 94 
-0.814147 0.0588743 3.93838 133 75 99 
-0.7276 0.653512 3.96077 169 123 133 
-0.0871538 1.27629 3.66012 99 57 61 
-0.0584894 1.4319 3.57071 118 67 66 
-0.435083 -0.185905 3.8387 131 63 64 
-0.176496 -0.675094 3.52611 109 89 78 
-0.504974 0.043305 3.80056 84 34 43 
0.128516 0.530953 3.81689 146 66 69 
-0.0268635 -1.55178 3.51566 143 83 75 
0.103084 -0.876129 3.50271 141 112 94 
0.0383196 -0.916652 3.48554 123 96 85 
-0.781616 -0.462372 3.93474 160 103 120 
-0.00445226 1.08264 3.73918 119 64 70 
-0.340545 1.07353 3.79894 36 5 10 
0.00602164 1.17242 3.70834 69 29 37 
0.17249 -0.177273 3.68576 146 75 69 
-0.576114 -0.0632421 3.81323 151 73 69 
-0.733398 -1.23771 3.73943 133 63 74 
-0.652505 0.62055 3.93098 175 125 134 
0.103982 -1.05734 3.50104 43 28 33 
-0.529987 -0.088825 3.82415 138 66 67 
-0.701014 -0.449695 3.90255 143 83 85 
-0.605372 -0.582464 3.6472 113 97 100 
-0.0175813 -0.809575 3.49577 156 121 102 
0.389241 0.614078 3.85131 167 134 125 
-0.651961 -0.0735446 3.81746 59 28 33 
0.329784 -0.963716 3.57942 68 42 43 
-0.537035 2.19025 3.75805 144 79 75 
0.130769 -1.04015 3.49077 145 117 96 
-0.379009 -0.693342 3.5732 23 14 15 
0.0920068 0.508009 3.81601 148 83 81 
0.0985023 1.05957 3.74806 116 63 69 
-0.0713942 -0.896384 3.49935 96 64 53 
-0.736148 -0.120369 3.85131 92 75 83 
0.361276 -1.37989 3.61479 165 128 102 
0.307923 -0.178994 3.67363 109 65 66 
0.029205 -0.787626 3.4955 162 127 107 
-0.726082 0.00569912 3.80973 166 96 98 
-0.125656 0.116918 3.76848 126 57 50 
-0.546453 -1.61398 3.65349 88 70 70 
-0.742631 -0.0714569 3.83769 171 105 107 
-0.491106 0.714769 3.70423 190 110 121 
-0.435832 -1.83805 3.63439 153 75 73 
0.0333225 -0.921916 3.50042 110 87 79 
-0.33802 0.614691 3.64129 36 26 35 
0.266661 0.00526127 3.63921 147 75 78 
0.182872 1.03415 3.75771 145 117 113 
-0.278455 -0.62888 3.5573 118 39 42 
-0.462366 -1.17423 3.59004 39 23 24 
-0.276154 -0.677771 3.5487 34 24 32 
0.242967 -1.81626 3.60989 122 67 64 
0.074672 -0.329244 3.73385 158 75 71 
0.478598 -0.514139 3.74557 151 115 115 
-0.0127715 -0.809888 3.49868 153 118 98 
-0.269231 1.46465 3.53768 48 16 29 
-0.531234 1.16331 3.78307 162 91 97 
-0.603495 0.979344 3.84794 122 65 71 
0.226738 0.0234262 3.63474 137 79 78 
-0.443981 -0.407907 3.6614 192 120 124 
-0.345188 -0.692112 3.57529 104 84 73 
-0.0600707 1.27926 3.66301 101 60 66 
-0.694397 1.57335 3.85265 51 6 11 
-0.477859 -0.330772 3.8425 82 21 26 
-0.605295 1.24709 3.78263 135 88 96 
0.742564 -1.13441 4.1223 96 66 64 
-0.610061 -1.53057 3.682 73 43 51 
-0.565354 1.02473 3.84164 127 71 70 
-0.129048 0.869569 3.55915 135 75 75 
-0.544166 1.12543 3.80287 154 84 86 
0.158745 -1.07013 3.51288 34 32 37 
-0.0297462 -0.808687 3.49677 66 41 36 
0.0472199 0.108175 3.69238 89 42 48 
-0.492305 -0.0548689 3.64896 44 12 13 
-0.516796 -1.22668 3.59968 176 81 89 
-0.78068 -0.429825 3.93334 62 44 58 
0.0686298 -0.756917 3.50392 55 49 53 
0.0208509 -0.838414 3.4952 152 118 93 
0.269746 1.18698 3.82055 123 98 93 
0.21997 -1.24258 3.53596 44 29 34 
0.423903 0.49474 3.86379 155 125 125 
-0.638291 0.53176 3.9477 179 115 129 
-0.639983 -0.299956 3.86232 153 79 76 
-0.184614 -0.578358 3.559 155 114 92 
-0.659915 -0.222408 3.8528 177 102 97 
-0.662461 0.708256 3.91796 79 59 68 
-0.683018 0.826183 3.92499 151 99 103 
0.319933 -0.985126 3.57834 167 118 104 
-0.459498 0.787465 3.60501 179 111 124 
0.351793 -0.53837 3.71906 133 77 76 
0.0963758 1.05178 3.74463 122 66 75 
-0.611045 0.517818 3.9362 157 91 103 
-0.585492 -0.0572812 3.80708 142 67 64 
0.269638 1.18527 3.82156 120 96 92 
-0.255692 -0.98326 3.52048 150 104 88 
-0.451741 1.1009 3.79931 127 68 72 
-0.0176995 -0.853503 3.49298 100 70 59 
-0.539605 1.17149 3.78562 81 34 44 
0.0598448 -0.790745 3.50269 125 98 91 
-0.726656 0.0923953 3.8073 200 140 140 
-0.0667248 -0.0401142 3.77777 125 64 61 
-0.871767 -0.494459 3.98909 94 75 95 
0.273255 -0.539673 3.71632 65 19 21 
0.373732 -0.213419 3.69687 100 60 68 
-0.477974 -1.77814 3.64053 124 44 53 
-0.217948 -0.520467 3.57782 144 45 50 
-0.622155 0.694762 3.89052 177 126 133 
-0.692413 0.577 3.96627 145 84 89 
-0.81801 0.0525133 3.88821 111 53 77 
-0.249864 1.38855 3.58857 121 65 66 
-0.155325 -1.57093 3.52812 147 95 84 
0.317861 0.353844 3.85424 159 83 83 
-0.354554 -0.541423 3.59979 130 92 83 
0.161972 0.911743 3.76336 45 33 43 
0.324942 0.855915 3.82058 139 112 103 
-0.882142 0.22608 4.11168 143 93 104 
-0.54201 0.610744 3.86992 128 99 121 
0.297236 -0.18022 3.67444 112 67 70 
0.29863 0.771044 3.81553 145 117 106 
-0.504588 -0.551362 3.63471 126 92 82 
0.140495 -0.795146 3.51059 73 42 39 
0.0881795 -0.75161 3.50443 62 46 47 
0.320759 0.0544872 3.70052 176 118 130 
-0.740066 -0.345112 3.89918 35 12 20 
-0.544514 1.06502 3.82323 149 74 78 
0.361334 0.490224 3.83885 138 82 83 
-0.670552 -1.71086 3.74003 178 120 108 
0.102758 -1.70413 3.54338 100 34 36 
-0.575327 1.0806 3.83399 140 78 79 
0.127015 -1.68363 3.54577 74 22 26 
0.0490257 0.476898 3.81569 146 77 82 
-0.255927 -0.443348 3.604 162 106 79 
0.297398 -0.179969 3.6732 108 66 70 
-0.595115 0.75131 3.85813 206 167 188 
0.433065 -1.42868 3.66453 55 31 31 
-0.36459 -0.836468 3.53166 139 99 89 
0.0267105 1.23664 3.68765 162 113 109 
-0.498161 1.22648 3.743 117 76 84 
-0.75214 -1.23076 3.76174 117 46 62 
0.016837 -0.207779 3.73789 60 28 39 
-0.110914 1.4767 3.54472 137 72 76 
-0.257611 -0.674487 3.54688 98 79 75 
0.291957 -0.524264 3.71513 93 68 74 
0.00273457 0.79066 3.70024 75 18 24 
-0.518848 0.0977797 3.82263 150 71 74 
-0.535461 -0.647864 3.60024 29 22 30 
-0.316713 -0.834408 3.5322 143 101 87 
0.0195923 -0.884422 3.48966 87 69 69 
-0.670891 0.430405 3.9771 67 56 70 
-0.4886 -0.0457401 3.82024 133 62 66 
-0.0633093 1.20868 3.68802 43 30 37 
-0.614464 -1.5912 3.68926 130 106 96 
-0.664276 -1.72697 3.75489 176 111 105 
-0.175904 1.22922 3.68987 68 31 38 
-0.648217 0.675247 3.91292 158 117 125 
-0.167984 1.23914 3.68745 144 80 81 
-0.118465 -0.647696 3.5291 20 15 19 
-0.282343 -1.33346 3.52377 126 89 71 
0.140599 -0.794542 3.50993 73 42 39 
0.282955 -1.4585 3.57678 62 25 32 
0.385172 0.811626 3.87168 141 114 95 
0.0114589 -0.279908 3.74591 42 11 16 
-0.125151 1.47054 3.54549 141 73 74 
-0.589626 2.02522 3.75417 176 112 110 
-0.721979 -0.0238664 3.81456 162 90 91 
-0.0897374 -0.677105 3.52448 62 47 40 
-0.495914 -0.223905 3.83893 61 22 25 
0.493993 -1.24502 3.6941 157 120 101 
-0.651126 -1.23475 3.67594 103 72 77 
-0.46409 1.10959 3.80075 29 16 23 
0.0261331 1.23753 3.69084 160 107 103 
-0.704474 0.0838538 3.79589 93 43 52 
0.261513 0.612867 3.78831 151 92 94 
-0.489883 0.0646667 3.81259 149 78 76 
0.0652768 0.786179 3.74929 142 86 95 
0.347964 -0.537239 3.71585 128 82 82 
0.0398138 0.605311 3.78192 164 89 86 
-0.482145 -0.0479864 3.82176 134 64 62 
-0.450091 1.20156 3.75007 59 34 40 
-0.0253547 -0.596522 3.53014 95 80 73 
-0.627203 -1.2873 3.67083 188 135 131 
-0.413329 -0.58538 3.59903 159 115 90 
0.323256 0.702811 3.8227 156 132 122 
-0.259004 0.612011 3.62236 126 78 74 
-0.456073 0.320694 3.90114 193 131 144 
0.430533 -0.583103 3.71817 82 31 28 
-0.653671 -1.54057 3.71649 176 140 124 
-0.548904 0.636568 3.86873 136 110 135 
0.0043503 -0.000390059 3.71724 85 55 67 
0.332865 -0.551014 3.71329 31 22 25 
-0.556839 0.0906882 3.79701 145 74 72 
0.248353 -1.8401 3.61857 124 65 67 
-0.239563 -0.969929 3.50897 41 19 21 
0.241788 -1.81307 3.60113 125 67 65 
-0.741947 -0.490016 3.90357 179 106 115 
-0.571185 0.349262 3.98187 151 125 134 
-0.1099 -1.55917 3.53412 44 24 25 
-0.756845 0.0579684 3.82667 111 74 82 
0.0171737 -0.208596 3.73761 60 28 39 
-0.501184 -0.331139 3.86116 148 78 78 
-0.760173 -1.24012 3.77177 117 59 74 
-0.663041 -0.179067 3.8535 56 15 19 
-0.487408 -0.804029 3.57913 118 96 99 
-0.737664 1.60052 4.00065 190 113 121 
-0.60682 0.799438 3.86599 158 94 110 
0.0711434 0.394089 3.83379 33 13 22 
0.403635 -1.15643 3.62623 96 60 46 
-0.587975 -0.0559326 3.80899 142 68 65 
-0.501292 1.1497 3.78202 159 87 88 
0.359807 0.48996 3.83697 141 85 86 
-0.474924 -0.33328 3.84179 112 42 50 
-0.750872 -1.2237 3.7755 139 62 78 
-0.527011 1.27711 3.72585 137 84 90 
-0.125118 -0.63711 3.53252 23 21 24 
0.230228 0.364983 3.84435 140 76 76 
0.149466 -0.786456 3.51117 113 56 63 
-0.450173 -0.63894 3.61196 14 10 11 
0.29032 -0.00393436 3.652 60 37 47 
-0.464662 1.11261 3.80119 39 26 35 
0.0141729 1.37398 3.64293 152 91 98 
-0.67474 -0.181566 3.84495 164 91 84 
-0.26354 1.34229 3.62519 116 61 67 
-0.490111 -0.185562 3.83597 49 14 20 
0.0168272 1.09689 3.72946 156 82 81 
0.204721 -1.00123 3.52216 152 114 105 
-0.831947 -0.325467 3.93339 92 56 60 
-0.471539 -0.190388 3.837 169 83 82 
-0.24181 1.11352 3.77453 145 86 92 
-0.246756 -0.74365 3.52468 164 124 98 
-0.368732 0.443384 3.71558 199 138 154 
-0.448612 1.42848 3.58176 132 71 70 
-0.468478 1.32569 3.67101 158 83 87 
0.249802 0.581416 3.8173 156 92 93 
-0.584045 0.378545 3.98555 172 104 115 
-0.592791 0.668292 3.88381 187 129 143 
-0.330207 -1.46227 3.55156 126 92 82 
-0.504443 -0.0529705 3.63921 129 59 59 
-0.0203047 1.37367 3.62272 98 53 58 
0.115572 1.28251 3.71605 145 98 104 
-0.664115 0.653252 3.92206 64 47 57 
-0.20812 -0.0584632 3.7022 174 105 108 
-0.182005 -0.687783 3.48534 16 12 13 
0.242729 -0.255626 3.68176 144 79 77 
-0.370697 2.29344 3.71802 113 52 47 
-0.322571 -0.589869 3.58337 140 92 80 
-0.711609 1.34766 3.84389 205 140 148 
-0.586534 -0.593104 3.63217 29 26 33 
-0.196241 -0.815566 3.50489 71 51 50 
-0.326669 -0.747947 3.54702 24 17 24 
-0.470602 -0.188873 3.84121 163 82 78 
-0.738317 -1.78615 3.83344 175 104 100 
0.0564198 -0.784353 3.4999 108 84 80 
-0.539819 1.10327 3.81347 149 73 75 
-0.629582 0.599385 3.92521 181 134 144 
-0.646707 -1.57764 3.7128 47 33 46 
0.268894 -0.954268 3.55226 137 104 97 
0.292365 -1.20834 3.57041 39 32 39 
-0.750864 -1.80892 3.84373 90 52 65 
-0.556841 0.591367 3.8825 88 80 101 
-0.519664 -0.722731 3.58932 138 109 105 
-0.389892 -0.0702116 3.80012 52 23 28 
-0.513798 -0.0679913 3.78003 68 29 30 
0.0653074 -0.384955 3.74441 128 57 53 
-0.00823973 -0.550026 3.54208 101 72 68 
-0.645272 0.459844 3.9741 167 104 113 
-0.649912 1.08627 3.85439 173 111 122 
-0.0977948 0.738445 3.63626 126 75 74 
0.328768 0.410566 3.84286 138 83 88 
-0.766683 0.075212 3.91799 131 60 78 
-0.77449 -1.23995 3.77876 183 126 133 
-0.700017 -0.288841 3.88263 156 91 95 
-0.434668 -0.520982 3.62428 150 104 89 
-0.52053 -0.633743 3.61398 84 74 73 
0.342893 -0.793153 3.57835 93 46 54 
-0.497439 -1.80021 3.65721 163 83 82 
-0.556213 -1.51711 3.64807 64 45 47 
0.324596 0.875526 3.82472 138 111 94 
-0.406278 -1.98941 3.65583 154 83 81 
-0.759392 -0.103278 3.85926 85 50 54 
-0.225538 1.44146 3.55373 129 69 69 
0.403998 0.291391 3.87616 153 77 79 
0.474569 -0.59521 3.70478 145 101 90 
-0.207488 -0.593955 3.55879 122 91 73 
-0.399517 0.845709 3.52197 197 125 129 
-0.632025 -0.168611 3.83138 159 91 82 
-0.380784 -0.842059 3.54413 153 111 95 
-0.593017 -1.67164 3.69961 164 104 96 
-0.669038 -0.300849 3.87451 154 89 85 
0.185838 1.16677 3.74755 137 80 86 
-0.650915 0.370186 3.9936 133 84 90 
0.0588804 0.787119 3.7437 139 82 91 
-0.287481 -0.126622 3.68229 112 37 41 
-0.457561 -0.639581 3.61456 18 12 14 
-0.638535 -0.11156 3.82886 45 25 27 
-0.280966 -0.683383 3.54873 38 27 33 
-0.838777 -0.462218 3.97531 109 88 105 
0.357363 -1.56925 3.6426 159 84 78 
-0.499268 1.27108 3.7196 49 39 48 
-0.222531 1.3296 3.60761 136 64 67 
-0.477432 -0.0708143 3.82396 69 33 37 
-0.296357 -1.94555 3.60433 160 85 82 
-0.355322 -0.645409 3.58364 43 29 28 
-0.6356 0.595506 3.81403 182 135 145 
-0.627941 0.836321 3.87677 50 39 53 
-0.00388384 1.25435 3.68221 105 63 64 
-0.0508213 -0.853616 3.4979 156 119 93 
-0.19554 -0.561156 3.57132 67 41 40 
-0.616039 -1.27673 3.6625 173 119 119 
-0.00631495 -0.17208 3.7477 161 85 87 
0.0539175 0.437279 3.82414 47 15 18 
0.0806815 0.730453 3.76688 54 44 55 
-0.325284 -0.751282 3.54936 26 19 26 
-0.849378 -0.381108 4.06304 212 150 155 
0.0487047 0.518521 3.8033 126 68 66 
-0.804771 -1.88604 4.1533 96 61 67 
-0.589391 -1.66232 3.68768 126 98 94 
0.26244 -0.504484 3.71686 53 19 18 
-0.434434 -0.52025 3.62443 147 104 88 
-0.0844446 1.28117 3.65439 111 46 50 
-0.251199 -1.97756 3.60434 88 27 24 
-0.276027 -0.837131 3.52304 153 115 94 
-0.484156 1.20139 3.75935 132 72 74 
0.14518 1.13215 3.73871 70 44 57 
0.408137 -0.246212 3.72905 63 42 49 
-0.391362 -1.30522 3.55942 147 111 97 
-0.363945 1.09702 3.78186 128 53 57 
-0.197476 -0.390144 3.61767 104 18 19 
0.0169087 1.09474 3.73009 150 76 75 
-0.564501 -1.25137 3.6464 199 126 120 
0.328511 -0.141711 3.68071 140 72 71 
-0.735636 0.35595 3.86941 138 72 76 
-0.242584 -1.00083 3.5066 39 15 13 
0.0307475 -0.295397 3.75491 141 70 66 
-0.612442 1.24953 3.79571 155 98 105 
-0.614213 -0.395252 3.87259 152 78 79 
-0.610113 1.05466 3.85292 124 62 67 
0.320711 0.683992 3.83004 163 135 124 
-0.401883 -0.844784 3.54573 154 108 93 
-0.542277 1.10085 3.81553 152 78 77 
-0.531836 0.331164 3.80887 179 144 151 
-0.0714294 1.28988 3.65503 111 49 54 
0.377625 0.548321 3.84962 165 118 112 
0.265247 -1.5667 3.58464 111 51 53 
0.0490142 0.802839 3.74082 121 68 76 
0.255689 0.57213 3.82296 152 92 92 
-0.232982 1.32851 3.632 139 63 67 
-0.00627548 1.20622 3.70183 152 88 86 
-0.397182 -1.96302 3.64331 62 25 32 
-0.655151 -1.56396 3.72013 173 140 123 
0.00729225 -0.568298 3.54198 29 23 27 
-0.625742 -1.24786 3.68989 133 57 70 
-0.435583 1.42474 3.58316 122 61 60 
-0.769978 -1.43243 3.79965 67 50 60 
0.360655 -0.535177 3.72345 138 76 77 
0.275816 0.809803 3.79745 38 36 49 
0.126275 -1.68305 3.54482 79 23 26 
-0.173323 -0.668463 3.54095 63 51 51 
-0.663869 -0.265255 3.86337 159 84 78 
-0.450827 -0.149426 3.83744 171 82 78 
-0.448782 -1.56353 3.59851 143 93 84 
-0.362917 1.09557 3.78629 124 52 55 
0.229429 1.17328 3.77952 38 29 34 
-0.570811 -1.24638 3.63052 215 171 158 
0.388554 0.693526 3.86417 155 128 117 
0.0728476 1.04135 3.74393 111 62 65 
0.292289 -0.00832458 3.64412 64 51 61 
0.326647 0.657868 3.81998 65 48 56 
0.278338 0.846874 3.80498 138 111 104 
0.268072 0.381614 3.83962 43 20 26 
-0.85037 -0.319373 3.95996 194 138 139 
-0.349399 -0.55765 3.59682 67 41 40 
-0.655352 -1.5168 3.71247 176 138 115 
-0.580978 -1.24631 3.64485 190 159 138 
-0.574522 -1.1919 3.63357 192 106 119 
-0.268988 -0.679114 3.5463 27 16 20 
0.398693 0.667723 3.86317 148 119 103 
-0.644853 -0.341792 3.86546 150 75 69 
0.182742 -0.206092 3.69229 150 77 71 
-0.5763 1.0843 3.83166 131 73 72 
0.0111913 1.2025 3.6988 70 35 41 
0.335996 0.751911 3.82801 68 51 57 
-0.559797 1.16486 3.79395 161 91 101 
0.290804 -1.33107 3.5825 135 55 56 
0.396369 0.657257 3.86045 144 112 101 
-0.663682 -1.70319 3.75437 191 143 129 
-0.141181 -0.852264 3.49928 103 75 64 
0.0758106 0.599039 3.7933 43 27 38 
-0.511509 -0.326575 3.85022 61 16 19 
-0.737687 -0.403323 3.90488 145 89 100 
-0.740475 -0.213752 3.86841 170 101 96 
-0.123935 -1.43753 3.51086 125 92 75 
0.280519 0.932863 3.79674 46 31 34 
0.0710908 1.17826 3.70673 144 75 78 
0.00255939 1.05191 3.74306 142 76 78 
0.242142 -1.20877 3.53757 37 27 36 
-0.493162 0.734673 3.78165 204 131 140 
-0.830624 -0.376884 3.95024 177 112 116 
0.433912 -0.429846 3.73563 67 36 42 
-0.810847 -0.307322 3.91108 177 116 111 
0.20534 -1.23772 3.51382 81 63 59 
0.0398687 -2.11465 3.64227 109 65 66 
-0.348403 -0.403887 3.63841 167 107 83 
0.282535 1.13374 3.82579 45 35 34 
0.132482 0.982586 3.75159 81 44 52 
-0.651315 1.27023 3.77552 192 171 190 
-0.661746 -1.9064 3.78961 95 62 69 
-0.691836 -1.733 3.77401 143 79 80 
0.325885 -0.940722 3.57618 52 25 32 
-0.400956 -2.01218 3.65303 83 47 49 
-0.0140788 -0.586651 3.53165 27 16 20 
-0.122371 2.15854 3.66076 54 42 42 
0.177966 -0.980082 3.51666 51 40 44 
0.125219 -1.09476 3.50578 149 117 96 
-0.72325 -0.423414 3.90307 58 31 40 
-0.869017 0.304536 4.09623 202 157 177 
-0.0527635 -0.706311 3.51468 69 50 44 
-0.1439 -0.598564 3.55215 33 19 19 
-0.165648 -1.89998 3.57144 100 56 53 
0.072249 0.569652 3.79564 41 24 32 
-0.0678437 -1.84147 3.5563 116 55 52 
-0.238232 0.895675 3.50459 149 84 88 
-0.481901 -0.134175 3.83363 51 16 20 
0.350624 -1.46642 3.61525 133 80 66 
0.277604 0.924528 3.79724 99 87 87 
-0.143895 -0.598022 3.55314 38 24 24 
-0.630553 0.580046 3.92762 183 127 138 
-0.895054 0.172579 4.11562 77 44 55 
-0.176829 0.138524 3.74834 124 64 64 
-0.386536 -0.105542 3.83302 46 19 28 
-0.460764 0.643036 4.00955 152 111 129 
-0.082417 1.26241 3.67257 35 28 36 
-0.54971 0.569795 3.8923 87 76 93 
-0.197822 -0.0553006 3.69192 162 82 75 
-0.0904095 -0.648352 3.52646 123 101 88 
-0.0279462 -0.821799 3.49696 69 44 39 
-0.635667 0.981529 3.87691 136 80 83 
-0.242828 1.31798 3.64231 130 63 72 
-0.706449 -0.233279 3.8641 142 84 82 
-0.493952 1.32708 3.69314 163 85 85 
0.12513 -1.03743 3.50763 158 127 106 
-0.576769 -1.18894 3.64313 177 90 106 
0.0198478 -0.00199316 3.71286 166 115 122 
-0.260193 1.27052 3.67971 154 93 100 
0.250901 1.09305 3.79057 135 112 104 
0.450371 -1.55623 3.6865 126 70 69 
0.043203 1.07108 3.73774 126 72 72 
-0.0883768 0.7457 3.64241 131 76 73 
-0.0896854 0.039847 3.79216 45 15 15 
0.290607 -1.55711 3.5948 156 107 93 
-0.455662 0.636372 4.03694 163 120 137 
0.19414 0.921547 3.77414 46 40 52 
-0.498893 -0.662269 3.60736 128 100 89 
0.399906 -0.223206 3.72322 147 87 95 
0.244418 0.67985 3.80374 154 101 95 
-0.346285 0.881026 3.50264 11 0 0 
-0.0119525 -0.101858 3.7474 99 53 66 
0.190756 -1.03288 3.52228 142 102 94 
0.448975 -0.930532 3.64967 79 39 40 
0.310311 0.929066 3.81787 90 67 61 
-0.673829 0.454428 3.96998 170 109 117 
0.374718 -0.192661 3.70102 84 47 54 
-0.399182 -0.605404 3.60103 6 0 0 
-0.0470152 -0.630434 3.53389 110 87 79 
0.39514 0.584065 3.84949 58 53 59 
0.00355288 -0.929759 3.49124 156 115 93 
-0.057411 -0.620141 3.53952 76 61 56 
-0.456407 1.37892 3.63088 52 17 23 
0.199415 -0.194441 3.67776 139 80 74 
-0.149642 -0.838733 3.49875 65 46 40 
0.139879 -0.635918 3.51395 92 68 66 
-0.0963473 0.100292 3.79151 32 10 12 
0.050749 -0.362602 3.74322 51 19 22 
-0.476571 1.22773 3.74327 42 37 44 
-0.432426 -0.0542219 3.8261 75 31 32 
0.372351 -0.13845 3.69376 140 85 90 
-0.782951 -1.24402 3.79546 156 96 104 
-0.376449 -0.862846 3.53762 124 32 33 
-0.453049 -0.0479298 3.82953 124 69 74 
-0.861953 0.298168 4.09186 153 118 138 
-0.456314 1.34927 3.6549 56 19 26 
0.36546 0.490199 3.83829 132 82 83 
-0.555737 -1.763 3.6935 173 108 102 
-0.468867 1.30117 3.69444 155 84 88 
-0.076365 1.07489 3.74438 31 25 29 
0.0386116 1.20358 3.70316 55 39 50 
0.300932 -2.00551 3.68843 126 70 69 
-0.176792 -0.865159 3.50357 90 65 58 
-0.0251323 -0.87232 3.49105 139 106 87 
0.0730803 0.569776 3.79647 39 26 35 
-0.0796921 1.08135 3.74273 35 28 35 
0.264059 1.20132 3.81735 109 86 78 
0.0449508 1.0498 3.74073 126 71 74 
-0.579022 -0.0978556 3.80829 123 59 60 
-0.488077 1.19614 3.75469 133 74 76 
-0.0689502 0.0239091 3.77933 153 78 82 
0.297603 0.871628 3.81067 117 96 93 
-0.238924 -2.06295 3.62103 138 77 76 
0.140973 1.00549 3.75413 118 67 72 
-0.749276 0.0735693 3.82224 109 52 61 
-0.758929 -0.493264 3.92796 187 117 125 
-0.554759 -1.51728 3.64302 63 47 50 
0.433701 0.450564 3.86073 156 114 115 
0.202816 1.03498 3.76958 145 120 115 
-0.455909 1.37319 3.63371 63 26 34 
0.19318 0.997317 3.7558 59 43 53 
0.181102 1.08994 3.76263 123 86 93 
-0.703143 -0.50716 3.89959 97 35 38 
-0.570741 0.966553 3.8474 37 20 28 
-0.558067 -1.49339 3.648 133 113 106 
-0.233985 1.43443 3.55452 121 61 63 
-0.378954 0.87478 3.51001 171 94 86 
0.377863 -1.49434 3.63215 154 101 83 
0.651361 -1.52461 3.93529 72 54 54 
-0.576478 1.29357 3.73953 72 30 44 
-0.15031 1.19088 3.7331 46 17 22 
-0.369763 -0.493356 3.61362 138 57 54 
0.248629 0.585226 3.81465 160 96 97 
-0.481749 0.606471 3.79363 142 103 122 
-0.675464 0.455958 3.97988 168 108 116 
-0.35528 -0.843841 3.53099 166 123 107 
-0.631541 -1.29535 3.66885 156 58 73 
-0.69717 -0.46463 3.89967 135 74 79 
-0.671294 -0.275241 3.87278 165 92 86 
-0.461946 -0.772285 3.57893 49 42 49 
-0.0866044 -1.83327 3.54782 124 59 53 
-0.784279 -0.142493 3.908 74 62 76 
0.0297579 1.10819 3.72708 48 19 24 
-0.550997 -0.0655973 3.81568 77 36 42 
-0.6641 0.00568402 3.79833 161 86 81 
-0.181857 -1.31359 3.50941 145 107 86 
0.123705 -1.09578 3.50708 157 126 106 
0.352871 -0.0707797 3.68504 152 93 97 
0.350465 0.430532 3.84243 141 76 80 
0.430904 -1.22689 3.65217 154 117 99 
0.419211 0.865797 3.96586 110 93 85 
0.509364 -0.606218 3.72834 159 121 110 
-0.424141 0.701728 3.62906 155 94 99 
-0.563261 0.497773 3.92231 190 118 130 
0.0574547 -0.768634 3.49903 65 46 42 
-0.339877 -0.605603 3.5809 92 68 56 
0.2281 0.674547 3.7994 82 36 47 
-0.826709 0.962287 4.03247 152 130 133 
-0.516642 -1.21997 3.59707 161 76 81 
0.0721867 0.476482 3.82094 40 23 31 
0.0868274 0.460209 3.82308 150 69 68 
-0.363734 -0.854169 3.53878 119 44 48 
-0.54431 -1.56505 3.64571 54 42 46 
0.0302911 1.10898 3.73115 53 23 31 
0.229337 0.677842 3.79578 75 32 42 
0.0777953 0.449124 3.82371 49 20 25 
0.195093 0.393422 3.84503 159 75 73 
0.139351 -0.638274 3.51963 88 66 68 
-0.577951 -0.0969976 3.82683 136 72 73 
-0.473445 0.392349 3.90388 206 149 164 
-0.233733 1.18571 3.72364 47 34 43 
-0.689579 -0.20324 3.85926 154 89 83 
0.329246 -0.910156 3.58269 56 34 37 
-0.457747 -0.0502744 3.82548 96 54 58 
-0.489689 0.747647 3.66936 204 129 134 
-0.104491 0.0950292 3.78225 48 12 14 
-0.0498962 -0.947607 3.51361 165 121 94 
0.19944 -0.0724367 3.65221 133 69 69 
-0.876468 -0.480328 3.98329 147 104 114 
0.215045 -0.413706 3.71564 158 84 83 
-0.629292 -1.91408 3.76898 167 96 94 
-0.705753 -0.449306 3.90154 143 81 84 
-0.548405 -0.157961 3.82969 146 75 71 
-0.471217 -0.512871 3.62605 130 93 85 
0.101292 1.12669 3.72349 140 81 85 
0.465763 0.195774 3.89501 51 25 28 
0.307267 0.822766 3.81073 109 93 94 
-0.424773 0.736773 3.61737 204 132 133 
0.205173 0.386619 3.84567 160 76 76 
-0.211841 0.896514 3.51881 87 48 53 
-0.723326 -1.8177 3.81545 151 93 91 
-0.425266 1.14045 3.78232 123 58 64 
-0.346424 -2.06948 3.6781 50 29 34 
-0.847604 -0.428567 4.00019 188 129 135 
0.368651 -0.295383 3.70485 146 78 79 
-0.542395 1.1734 3.7752 81 35 46 
0.488689 -1.04688 4.05599 67 37 45 
0.360694 -0.111325 3.68962 70 37 44 
-0.735795 -1.30247 3.73002 161 73 89 
0.34432 -1.24578 3.59767 170 121 107 
-0.0477707 -0.936298 3.49919 165 123 99 
-0.424821 0.432193 3.8217 230 189 203 
-0.248682 -0.774315 3.50039 165 123 98 
-0.0732302 -1.85073 3.56264 91 35 34 
0.0763039 -0.692365 3.50878 118 94 90 
0.403427 -0.837199 3.6239 177 125 111 
0.498948 0.0551585 3.88565 43 37 47 
0.209206 -0.9952 3.52919 139 109 99 
-0.0269297 -0.629489 3.53239 21 16 20 
-0.646905 -0.487338 3.8907 190 110 121 
-0.559923 1.95717 3.60796 175 110 116 
0.0350887 -1.75548 3.54029 40 19 24 
-0.306527 -1.45841 3.54508 130 93 77 
-0.493127 -1.27428 3.59826 198 159 142 
-0.449849 1.19835 3.75597 54 34 43 
-0.0834446 2.1996e-05 3.78908 51 19 24 
0.431284 -0.926867 3.63772 165 108 97 
0.0569398 0.491015 3.81379 36 17 21 
-0.701229 -1.47509 3.74217 87 65 67 
-0.447339 -0.664767 3.59343 72 54 50 
-0.820576 -0.215964 3.91482 172 109 118 
-0.426594 1.42214 3.58656 122 58 59 
-0.255741 -0.890643 3.51688 170 113 93 
-0.559362 1.11176 3.81118 154 92 95 
-0.822962 -0.431715 3.94341 75 53 66 
-0.183118 1.35161 3.61293 118 62 65 
-0.845696 -0.444309 3.9558 156 96 106 
0.213425 -0.413019 3.71198 156 82 81 
-0.697235 -0.118195 3.8386 129 69 71 
-0.548393 1.54012 3.69492 61 56 52 
-0.0404636 -0.818775 3.49309 162 120 96 
0.282437 0.972357 3.80151 139 111 99 
0.0100185 0.494594 3.79051 154 78 78 
-0.329066 2.21244 3.67334 115 58 51 
-0.0972225 0.106362 3.78943 27 2 5 
-0.728631 -0.093514 3.83893 93 49 50 
0.157508 1.04062 3.75311 158 102 101 
0.0521453 0.712031 3.76356 150 79 83 
0.0668128 0.488247 3.806 42 27 34 
0.486011 -1.29185 3.69377 161 120 100 
-0.537028 1.30292 3.71694 151 96 101 
-0.65664 -1.48443 3.71469 182 142 130 
-0.68069 -0.224425 3.86023 155 88 80 
-0.493575 -0.304664 3.86815 149 73 73 
-0.0464548 1.11719 3.72785 122 68 68 
0.136774 0.870742 3.76638 131 91 91 
-0.404309 1.37605 3.62336 124 64 66 
0.0921319 0.698199 3.77008 144 80 81 
0.308296 -0.0808562 3.66227 152 81 79 
-0.909301 -0.5341 4.0216 203 158 181 
0.499804 -1.24958 3.69972 152 115 96 
0.174661 -0.413212 3.72131 153 79 76 
0.149667 -0.848699 3.51007 149 118 98 
0.0222204 -0.764682 3.49276 163 130 111 
0.0763137 0.645626 3.78609 58 34 47 
-0.438012 1.35614 3.6372 136 67 70 
0.0634804 0.587079 3.79502 151 75 75 
0.0210401 1.3205 3.68823 134 86 86 
-0.546444 -1.49965 3.63944 48 41 48 
-0.00011717 1.05025 3.7392 141 70 74 
0.255619 0.0176106 3.63231 148 83 89 
-0.442482 1.18441 3.76505 39 27 37 
0.246811 0.566422 3.8166 141 90 89 
-0.425094 1.08769 3.80119 138 62 64 
0.0773173 -0.692393 3.50969 118 94 90 
-0.272132 -0.329576 3.63416 157 90 74 
-0.829594 -0.28607 3.93571 95 72 82 
0.225716 1.24254 3.78265 60 30 30 
0.247704 -1.59219 3.57001 160 112 98 
0.434425 -0.925172 3.6477 161 109 96 
-0.0579394 -0.828792 3.4976 158 118 93 
-0.122972 2.36779 3.82779 81 70 66 
-0.732809 -1.53565 3.7821 182 140 126 
0.291253 -0.502467 3.72357 37 32 39 
0.261768 0.959657 3.79673 95 80 83 
-0.189729 -0.493134 3.58721 123 86 78 
-0.0146855 -0.615222 3.5261 33 24 27 
0.0151978 1.30271 3.66353 135 87 87 
-0.383494 -2.13031 3.71154 86 42 43 
0.215866 0.635763 3.8012 157 91 93 
-0.790464 -0.430651 3.93357 163 106 113 
0.0139045 -0.574252 3.53304 35 25 34 
0.457555 -0.417518 3.76088 145 92 98 
0.155698 -0.260794 3.69532 154 83 77 
-0.170949 2.25044 3.70175 98 62 64 
-0.00847307 1.33516 3.67333 132 77 74 
0.00677433 -0.33121 3.74785 38 8 8 
-0.469778 1.35323 3.64669 148 73 78 
0.37911 -0.41562 3.72218 148 88 87 
-0.303301 0.853356 3.5056 58 23 27 
-0.340656 1.40759 3.60945 71 42 47 
0.30435 0.730078 3.80678 164 134 124 
0.134853 1.03298 3.74988 137 82 87 
-0.450357 -0.119204 3.94203 163 74 68 
0.0135994 -0.922422 3.49366 74 54 47 
-0.555031 1.29784 3.72552 160 87 94 
0.324055 -1.40034 3.59188 158 88 80 
0.203501 -0.998023 3.52346 139 106 99 
-0.764862 -0.535699 3.92743 190 119 125 
-0.738199 0.394433 4.01523 163 97 99 
-0.750599 -0.43246 3.92114 62 48 63 
0.241221 0.399299 3.84625 151 85 87 
0.242938 1.11471 3.78376 50 32 32 
0.119053 0.381934 3.89052 151 70 69 
0.084519 0.0853367 3.67524 68 25 32 
0.337436 0.551371 3.83311 155 91 92 
-0.62557 -0.650572 3.64456 182 156 155 
-0.383526 0.0863981 3.82261 89 35 33 
-0.0576931 1.44018 3.56456 102 65 72 
-0.581002 1.43376 3.66471 188 118 129 
-0.761401 -0.173837 3.8741 41 38 45 
0.436333 0.479798 3.87368 161 131 121 
-0.885266 0.199329 4.12175 57 17 17 
-0.469294 1.35318 3.65283 154 82 86 
-0.546782 1.30827 3.71386 103 52 59 
-0.320953 -1.18917 3.54404 128 46 50 
-0.425972 0.100847 3.81438 34 23 29 
-0.825208 -0.545994 3.96068 132 62 64 
-0.144978 -0.858089 3.5 153 118 99 
-0.186527 -0.765802 3.51359 96 77 71 
-0.380618 -0.864101 3.51975 135 40 44 
0.231392 0.783158 3.78254 100 86 86 
-0.141292 -0.855294 3.5053 124 91 76 
0.27089 -0.20474 3.67664 120 68 70 
-0.692587 0.0410369 3.79642 64 22 26 
-1.22761 -0.0545572 4.50201 207 207 207 
-0.468364 1.36016 3.65766 147 75 79 
0.321115 0.328869 3.90983 89 58 64 
-0.425406 -1.46239 3.59387 137 75 80 
0.177761 -1.41787 3.52436 149 87 88 
-0.494848 1.44711 3.58478 149 78 82 
0.102224 0.368445 3.83943 146 66 65 
-0.488533 1.34537 3.66289 168 92 94 
-0.552027 1.17166 3.78588 166 101 109 
-0.000661409 1.09552 3.73311 61 21 30 
-0.237393 -2.03772 3.61057 118 57 56 
0.0353738 -1.7539 3.54326 57 33 31 
-0.106802 -1.54786 3.56924 140 95 76 
0.00896827 -0.180562 3.74876 166 96 98 
-0.0605088 1.28515 3.66105 105 50 56 
-0.434312 -0.587654 3.60332 151 110 88 
0.351454 0.945327 3.85954 144 116 104 
0.240936 -0.898118 3.53085 102 52 61 
-0.426243 -2.09016 3.71408 121 69 71 
0.197158 -0.346854 3.70367 100 45 48 
-0.288928 -0.692045 3.54804 86 72 71 
0.26526 -0.0120302 3.64407 152 80 81 
0.0148436 1.12298 3.71803 155 84 82 
-0.564424 1.10182 3.81957 56 29 36 
0.0613224 -0.858518 3.49726 121 94 85 
-0.127612 1.48249 3.53465 152 92 92 
-0.272879 0.61245 3.62691 33 26 34 
0.116492 -0.879478 3.50794 148 103 80 
-0.126059 -0.710811 3.5227 28 18 17 
-0.358688 -1.99719 3.64215 144 71 65 
0.140201 -0.866641 3.51028 177 142 120 
-0.53219 -0.039765 3.81616 138 68 70 
0.108334 0.470407 3.80948 158 77 76 
-0.47282 0.393765 3.88711 197 138 156 
0.0601751 0.490206 3.81306 36 24 28 
-0.195132 -1.25284 3.51113 117 84 69 
-0.803075 -0.29551 3.91726 171 117 115 
0.091035 -0.827038 3.50088 165 129 107 
0.126523 1.27465 3.72086 88 51 59 
0.0241584 -0.759654 3.49027 163 127 111 
-0.161071 -0.697326 3.56436 17 15 16 
0.291324 -0.378089 3.69499 42 36 38 
-0.545857 1.17594 3.78898 134 79 85 
0.329711 -1.39809 3.50509 146 108 89 
-0.470611 1.27937 3.70654 97 72 76 
0.3421 0.946383 3.85151 86 62 52 
-0.503408 0.458347 3.89805 144 123 142 
-0.188976 1.22761 3.6962 141 72 75 
-0.652606 -0.393104 3.88652 163 88 82 
0.329029 -0.910571 3.58139 56 34 37 
-0.154371 -0.386823 3.62517 158 82 82 
-0.722411 0.458539 3.98021 62 48 61 
-0.817298 -0.363679 5.18215 221 189 202 
0.322822 -0.393237 3.7053 39 27 31 
-0.322838 -1.82936 3.59553 142 71 67 
-0.467194 0.802584 3.59509 193 136 145 
0.0147812 -0.861261 3.49551 60 49 53 
0.0435629 0.774153 3.74904 91 41 50 
-0.253281 -0.954865 3.512 142 97 76 
-0.381416 1.23747 3.72044 132 63 66 
0.0615981 0.586842 3.79112 157 79 77 
-0.0527999 -0.855226 3.49602 143 110 91 
-0.0692348 1.31273 3.63481 126 54 57 
-0.145648 -0.651235 3.43307 103 90 81 
0.216261 -0.412718 3.71065 154 84 84 
-0.690189 -1.26491 3.71102 108 79 75 
-0.528725 0.0972678 3.78891 150 72 72 
-0.130461 -0.69618 3.52135 96 81 78 
0.270744 0.558635 3.82556 64 43 52 
0.197604 1.27341 3.77166 117 66 65 
-0.104213 0.870742 3.55873 144 85 87 
0.308813 -0.238495 3.68347 41 34 41 
-0.40269 1.24308 3.71622 138 72 76 
-0.0743603 -0.867444 3.49296 141 105 91 
0.435185 -3.22719 6.30811 106 56 59 
0.194884 -0.966034 3.52348 98 79 75 
-0.845475 -0.317418 3.95146 207 150 157 
-0.665609 -0.13222 3.83577 64 33 39 
-0.491105 1.1904 3.75985 130 68 71 
0.330703 -1.38702 3.60432 161 101 91 
0.362545 0.427383 3.84791 143 84 86 
-0.416243 1.38424 3.61609 51 10 14 
-0.0607338 -0.825508 3.49647 150 112 91 
-0.461928 -0.0895068 3.8323 161 81 80 
-0.262716 -2.22191 3.70996 135 80 77 
-0.55575 -0.052653 3.82629 62 31 36 
-0.216045 -1.93983 3.58906 105 54 51 
-0.40738 1.24512 3.71793 145 79 83 
0.342679 0.439541 3.84427 147 82 86 
-0.71242 1.30042 3.86161 121 115 143 
0.200077 0.711855 3.79011 153 84 87 
-0.431889 -1.97879 3.67051 153 75 71 
-0.382392 -2.06482 3.67781 84 48 52 
0.0748363 0.47009 3.80723 59 29 37 
-0.555205 0.126059 3.79188 152 81 85 
-0.771441 0.929276 4.00154 228 212 223 
-0.413643 -0.367081 3.66709 208 137 135 
0.0888927 -0.98171 4.00179 66 41 34 
-0.364677 -0.492355 3.62157 134 40 41 
0.383992 -0.156579 3.70681 74 34 34 
-0.13321 0.177257 3.77173 120 55 53 
-0.255472 2.36793 3.7286 170 171 166 
-0.476318 -0.169453 3.83318 164 81 77 
-0.414008 0.5577 3.71256 188 130 144 
0.353791 0.426704 3.85438 145 81 82 
-0.686651 0.0439487 3.79175 75 34 38 
-0.208747 1.29973 3.64667 45 15 23 
-0.671838 -0.0622817 3.82005 125 71 69 
-0.196283 -1.25119 3.5109 123 87 73 
0.679783 -1.28525 3.94369 103 68 66 
-0.271804 -1.41951 3.52886 142 101 83 
-0.651372 -0.120608 3.82216 128 64 64 
-0.109068 -1.57184 3.52311 143 85 71 
-0.244693 -0.902011 3.51572 57 28 20 
-0.667996 -1.77721 3.76513 166 88 86 
0.487256 -0.621007 3.73339 115 60 63 
-0.76998 -0.482643 3.93148 192 130 141 
0.333913 -1.40951 3.5951 162 119 100 
-0.803591 -0.421114 3.92676 147 86 94 
-0.759229 -1.40142 3.78611 171 72 90 
-0.447134 1.31556 3.67165 152 83 88 
0.2547 -0.243156 3.68102 136 72 70 
-0.20296 1.43829 3.54603 59 20 25 
0.318665 -0.159556 3.68389 82 36 39 
0.00381714 -0.225621 3.76883 153 74 70 
-0.619808 1.39855 3.69229 231 213 235 
-0.088573 -0.604673 3.54188 136 107 91 
-0.305356 -0.45198 3.6093 163 114 84 
-0.557907 -0.0588385 3.81052 61 30 35 
-0.5086 -1.85563 3.67314 167 90 82 
-0.440244 -2.10159 3.72345 145 81 81 
-0.230999 1.17574 3.73363 51 35 45 
-0.806257 0.946311 3.98828 204 183 182 
-0.0294204 -0.698832 3.50509 107 90 83 
-0.383412 -0.1595 3.81921 109 52 58 
-0.442741 1.10817 3.79502 41 11 21 
0.271612 -0.2051 3.67859 120 68 70 
0.0920087 -0.60347 3.52649 146 107 102 
0.0674241 -0.778495 3.49624 131 108 94 
-0.075539 0.0714161 3.79047 131 66 72 
-0.0434288 -0.820695 3.49499 156 114 92 
0.24273 0.79084 3.79309 69 58 62 
-0.63745 1.1403 3.83839 174 127 137 
0.325962 0.332888 3.92421 89 57 60 
-0.696974 0.0737257 3.78569 87 55 56 
-0.409777 1.24906 3.71927 141 75 79 
-0.571272 -0.16881 3.83278 41 24 30 
-0.460134 1.3354 3.6647 66 25 33 
-0.687009 -0.422033 3.89343 53 28 32 
-0.507459 -0.321561 3.84789 61 15 17 
-0.414763 2.34023 3.77167 111 66 60 
0.079327 1.22681 3.70235 116 71 76 
-0.362556 -0.571183 3.59561 108 79 61 
-0.0887558 -0.875909 3.50327 121 89 78 
-0.363309 -0.570059 3.59918 99 70 54 
0.0462801 -0.773571 3.4978 165 130 110 
-0.376416 -0.550593 3.59879 140 98 84 
-0.161344 0.649197 3.64061 123 70 66 
0.336641 -1.31319 3.5864 164 127 100 
0.427113 -0.328658 3.9151 141 83 82 
-0.0436171 -1.24386 3.49582 121 88 71 
-0.738794 -0.134598 3.85497 47 37 45 
-1.20618 -0.0548814 4.49703 173 170 165 
-0.250318 -1.82098 3.57505 146 88 76 
0.297017 0.0231409 3.6613 109 64 67 
-0.563978 -1.1787 3.6186 167 75 90 
0.268777 -1.37937 3.50478 133 54 60 
0.20583 1.04651 3.77292 149 127 116 
-0.385316 1.09435 3.78455 136 60 62 
-0.525996 1.24643 3.74326 67 35 48 
0.282606 -0.244267 3.68581 117 73 72 
0.580964 0.0481333 3.99941 86 60 63 
0.0158708 1.27545 3.67673 107 68 73 
0.451794 -0.53141 3.73442 141 96 99 
-0.37968 -0.761865 3.55479 82 67 64 
-0.847496 0.0633582 3.96076 223 175 191 
-0.397293 1.33587 3.65395 141 77 77 
0.401878 0.34153 3.86498 158 86 89 
-0.560421 -0.542687 3.63636 122 92 90 
-0.108774 -1.57168 3.52325 138 82 67 
-0.262734 -0.455518 3.60464 146 53 48 
0.0485828 0.501366 3.80869 137 74 82 
0.0442747 1.04459 3.76186 109 59 60 
0.297896 1.13078 3.83331 104 90 81 
-0.602597 0.714627 3.86299 116 88 110 
0.161549 -0.831491 3.50747 84 56 52 
-0.285249 -0.639752 3.562 114 71 64 
0.504533 -0.577626 3.73569 150 107 100 
-0.23099 -0.402104 3.6077 146 92 68 
-0.269966 -1.81592 3.57488 157 100 83 
-0.436572 0.77465 3.57614 166 84 98 
-0.567594 -0.316796 3.84631 158 79 75 
-0.411649 1.27692 3.69455 135 75 75 
0.0215708 1.21348 3.69671 155 97 95 
0.0929288 -1.07878 3.49989 161 123 100 
-0.386123 -0.0827198 3.83112 43 18 24 
0.340027 -1.33787 3.59963 162 126 104 
0.455857 -0.167611 3.76777 71 51 53 
-0.0243702 -0.887479 3.49357 96 69 62 
0.151523 0.592309 3.79682 127 65 68 
-0.557335 1.04587 3.84301 43 16 25 
-0.5574 1.07906 3.82932 67 36 44 
-0.476096 1.34113 3.63547 151 76 81 
-0.341941 -0.673134 3.56365 148 112 98 
0.305157 0.861533 3.81557 127 105 107 
-0.188034 -0.445609 3.58563 135 45 47 
0.401644 -0.837142 3.6225 169 117 103 
-0.527138 -0.143791 3.83687 70 28 30 
-0.200445 1.45571 3.53893 85 39 42 
-0.820288 -0.324603 3.96135 176 115 114 
0.420567 -0.430104 3.73228 169 97 100 
-0.844805 0.883888 4.07417 97 86 102 
-0.346609 -1.37622 3.54354 27 22 29 
-0.262225 0.328583 3.71973 23 17 21 
-0.675426 -1.4498 3.72443 186 154 133 
0.0786967 -0.776468 3.48276 165 130 108 
-0.488774 -1.23055 3.58303 188 131 120 
-0.825305 1.05803 4.06675 86 79 87 
-0.583435 -1.52779 3.66002 183 138 119 
-0.849351 -0.142012 3.98196 245 216 236 
-0.497869 0.703646 3.74295 112 54 66 
-0.23051 -0.724281 3.51595 169 125 98 
-0.658823 -1.5831 3.72739 172 139 124 
-0.1308 -0.553841 3.53768 155 109 85 
-0.844801 0.945888 4.09547 76 65 79 
-0.295312 0.576015 3.62555 37 30 38 
-0.443703 -0.47202 3.63542 19 17 22 
-0.449995 -0.566473 3.65984 135 88 70 
-0.427163 -0.665759 3.58602 58 44 44 
-0.726234 -1.70695 3.77015 47 37 48 
-0.665961 -1.28297 3.69981 159 130 122 
-0.422244 -0.206954 3.84044 28 17 21 
-0.0455826 -0.093041 3.75031 172 94 94 
-0.0651784 -0.651716 3.50479 19 14 18 
0.364637 0.745739 3.83815 51 40 44 
-0.518739 0.834379 3.61782 229 197 210 
-0.846643 -0.575257 4.06144 148 72 76 
0.312195 0.998101 3.82269 49 39 37 
-0.375777 -0.721299 3.55366 140 103 84 
-0.768901 -0.282363 3.9124 36 31 37 
-0.894127 0.0580983 4.12424 198 144 158 
0.28007 0.701314 3.79607 63 50 60 
0.0412478 -0.841979 3.47752 152 124 103 
0.120441 -0.857554 3.48531 172 136 114 
-0.320122 -0.845071 3.51877 159 112 92 
0.264294 1.0942 3.79213 40 30 31 
-0.604358 0.78975 3.87479 115 49 63 
-0.477218 0.706962 3.68888 74 28 30 
-0.583374 -0.369744 3.89182 41 31 39 
-0.168296 -0.623312 3.53983 16 14 19 
-0.313313 -0.75271 3.49969 22 20 25 
-0.480066 -0.595069 3.62053 135 94 74 
-0.876132 0.956217 4.18856 83 77 87 
0.286608 0.397145 3.82583 38 35 42 
-0.688482 -1.56304 3.76638 184 147 129 
-0.23886 -1.29346 3.51502 29 24 28 
-0.760477 -0.00503346 3.83358 72 66 80 
-0.748552 -0.154393 3.88692 42 37 44 
-0.849294 1.21715 4.19682 182 144 131 
0.268173 1.02201 3.78029 42 32 33 
0.0860449 -0.369078 3.71539 44 24 26 
-0.722756 1.30157 3.87955 85 76 97 
-0.597187 1.48157 3.70307 207 178 200 
0.203207 0.897135 3.76491 41 29 39 
-0.619444 0.0231162 3.80011 41 24 30 
-0.852696 0.699136 4.11224 103 101 115 
0.309223 0.657155 3.80907 159 129 121 
-0.369306 -1.85307 3.59112 36 27 32 
0.371157 0.682889 3.83726 152 122 114 
0.262179 -1.22289 3.54293 165 134 114 
-0.413712 -1.25095 3.57221 31 29 32 
-0.74229 -1.5511 3.79925 50 38 52 
0.278255 0.764053 3.82446 153 124 110 
0.211543 0.79385 3.76998 153 121 108 
0.20476 1.00136 3.76172 44 36 47 
-0.0658628 -0.153694 3.74718 22 13 14 
0.050432 -1.76094 3.52626 35 24 28 
-0.507848 -1.65152 3.64542 156 101 98 
-0.7998 0.0526242 3.88088 123 80 90 
-0.68824 0.820987 3.91793 187 143 144 
0.0707292 -0.17938 3.69883 48 37 45 
-0.565568 -1.58861 3.66388 36 31 37 
-0.780482 -1.41973 3.82927 213 164 157 
0.307163 -0.450274 3.69414 151 84 78 
-0.230621 -0.883781 3.50008 164 123 95 
0.35956 1.20184 3.93134 61 47 44 
-0.60877 -1.49069 3.70814 173 136 118 
-0.726906 -1.27922 3.75416 160 133 124 
-0.581106 0.701209 3.86839 89 81 104 
-0.286632 -0.403914 3.61439 149 98 69 
0.00971928 -0.60741 3.50672 107 90 83 
-0.856235 0.817134 4.09673 94 75 94 
-0.851398 -0.0974728 3.94452 253 221 234 
-0.590492 -0.16863 3.84863 32 23 26 
-0.359545 -1.24843 3.53692 122 81 75 
-0.115817 -0.857035 3.4838 149 107 85 
-0.471127 0.33525 3.91871 116 90 115 
-0.27759 -0.662375 3.53881 22 13 18 
0.197044 -1.72331 3.55886 40 29 35 
0.168726 -0.919969 3.49803 156 118 95 
0.311778 -0.509597 3.69797 32 29 36 
-0.713597 -1.42317 3.76105 186 147 130 
-0.0378979 -0.568259 3.51618 25 20 24 
-0.882716 0.660447 4.15497 95 88 104 
-0.475613 -1.36781 3.58184 27 27 35 
-0.799706 -0.131864 3.90399 214 164 176 
-0.748061 0.5492 4.01038 72 51 60 
0.277002 0.572339 3.81084 59 49 58 
0.241083 0.730628 3.78028 165 129 117 
-0.474902 -1.52296 3.60778 123 91 94 
-0.455046 1.14189 3.77615 27 20 27 
-0.0181151 -1.23683 3.48491 22 12 13 
-0.137916 -0.777091 3.48931 25 23 28 
-0.472378 -1.61423 3.61615 37 27 35 
-0.794423 -0.0286938 3.8806 85 61 85 
-0.208719 -0.663331 3.53437 21 16 22 
-0.451596 -0.728538 3.57047 26 21 27 
-0.647673 0.713812 3.9195 156 125 130 
-0.515448 -1.1832 3.59326 42 41 49 
-0.733958 -1.69453 3.83183 57 43 56 
0.00412636 -0.105561 3.71899 171 99 100 
-0.498045 -0.65273 3.60353 96 72 68 
-0.439517 0.684879 3.65734 183 115 130 
-0.410044 -1.36119 3.55688 155 115 105 
-0.702228 1.56584 3.92822 202 136 138 
-0.73824 0.877595 3.99646 210 197 207 
0.161583 0.860922 3.75579 137 114 106 
-0.672872 -0.313953 3.89379 38 18 20 
-0.880814 -0.101427 4.01564 227 186 200 
-0.00136812 -0.869753 3.47328 154 123 102 
-0.717437 0.811771 3.97152 199 187 199 
-0.176791 -1.24862 3.49404 52 33 35 
0.163018 0.972757 3.75125 157 121 109 
-0.58526 0.879772 3.80677 115 77 88 
-0.545093 -0.655517 3.61929 79 72 79 
0.351861 0.851327 3.83895 49 33 33 
-0.705688 0.984149 3.91079 88 64 80 
-0.741427 0.101881 3.91126 203 170 181 
0.396708 0.428748 3.85118 148 93 98 
-0.323294 -2.00238 3.62037 31 21 30 
-0.681228 0.518254 3.99507 66 52 65 
-0.407825 0.0472152 3.82284 55 29 38 
-0.23547 -1.82429 3.55565 61 19 23 
0.192654 1.03076 3.40441 149 125 113 
-0.65745 -0.482451 3.91378 64 36 48 
0.0601667 0.0179154 3.66729 66 58 73 
0.274616 0.827429 3.7909 120 102 102 
-0.695705 0.449095 4.01599 146 89 98 
0.294713 -0.0649475 3.63741 48 32 43 
0.116184 -0.720517 3.4896 65 50 57 
-0.798717 1.19568 4.02777 107 94 112 
-0.231894 -1.18891 3.49852 157 110 90 
0.421999 0.541236 3.86123 151 124 115 
-0.012815 0.0502175 3.74344 171 113 125 
-0.0977494 -1.44739 3.49605 36 26 27 
-0.0431147 -0.00694689 3.74577 159 86 93 
-0.488029 -2.06062 3.73428 158 87 83 
0.34892 1.00137 3.85596 61 53 51 
0.354167 -0.809976 3.56803 155 111 98 
0.0313599 -0.75808 3.47795 159 122 104 
0.220737 -0.167278 3.64817 148 80 81 
-0.0148979 -0.782393 3.47959 118 89 81 
0.219321 1.13839 3.75788 44 18 29 
0.0721149 -0.241049 3.69656 166 87 83 
-0.641334 0.588366 3.95306 84 61 77 
0.226551 -1.28025 3.54307 154 112 90 
0.299243 -0.271535 3.67102 53 38 43 
-0.543281 -0.801732 3.59334 176 141 135 
0.41453 0.718669 3.87603 64 53 47 
-0.342186 0.408931 3.70753 93 68 89 
-0.72924 0.615628 3.99106 49 35 48 
-0.588079 0.654977 3.90051 203 151 163 
-0.480069 1.26167 3.72597 56 50 60 
0.418023 0.628832 3.86031 134 110 98 
0.45831 0.644222 3.96527 130 106 94 
-0.254526 0.621908 3.60685 129 67 70 
0.282651 1.17028 3.83286 54 48 52 
-0.374985 0.128907 3.88336 117 48 51 
0.0749222 1.07721 3.70181 42 36 48 
-0.611842 -0.632134 3.64766 38 32 46 
-0.618621 0.383007 4.00015 82 59 67 
-0.487265 -0.82037 3.57339 135 109 108 
-0.557501 0.561464 3.90143 195 142 150 
-0.886315 -0.262918 4.03994 207 188 207 
-0.623402 -1.39895 3.67814 172 116 115 
0.304855 -0.389529 3.69474 40 33 40 
-0.530038 -0.731563 3.58531 105 75 73 
0.262951 -0.134438 3.64108 55 24 30 
-0.353172 -0.663677 3.55573 20 7 1 
-0.552273 -1.23489 3.59896 197 113 113 
0.1914 1.06588 3.75795 47 27 38 
-0.213513 -0.543191 3.56716 159 118 96 
0.113486 0.898271 3.75101 134 70 71 
-0.81842 0.992628 4.04368 206 185 180 
0.264993 -0.934738 3.52854 48 31 39 
-0.773204 0.725155 4.01584 207 200 208 
-0.510167 -1.45747 3.61299 39 36 45 
-0.0793105 0.10605 3.76648 151 82 85 
-0.166003 -0.706764 3.50183 112 90 77 
-0.212906 1.23699 3.67918 135 69 73 
-0.0587434 -0.207014 3.77145 24 11 18 
0.151542 -1.68365 3.54307 147 101 86 
-0.418784 0.116242 3.81885 48 19 24 
-0.870332 0.563795 4.11397 118 106 130 
-0.645793 -0.694467 3.67359 104 90 105 
-0.542129 1.29203 3.72593 54 16 31 
-0.395055 -0.523461 3.60417 133 86 76 
-0.469858 -1.15748 3.57068 189 141 121 
-0.35816 -1.91413 3.61308 147 73 72 
-0.837381 1.16072 4.12431 175 138 132 
0.374699 0.58459 3.82415 150 121 107 
-0.336988 -1.31111 3.55069 131 89 75 
-0.581827 -0.267863 3.88115 155 74 70 
