ply                 
format ascii 1.0    
element vertex 777
property float x    
property float y    
property float z    
property uchar red  
property uchar green
property uchar blue 
end_header          
0.495003 0.284483 1.95464 38 21 5 
0.58605 0.470703 1.89796 182 137 72 
0.44431 0.313394 1.93394 134 71 17 
0.417617 0.801824 1.74577 49 29 5 
0.334318 0.665532 1.81115 83 48 26 
0.590584 0.474588 1.89852 97 67 39 
0.587258 0.471443 1.89702 177 133 68 
0.540058 0.600553 1.88394 55 16 1 
0.501736 0.462882 1.87849 182 134 70 
0.528805 0.867476 1.78626 106 80 45 
0.636097 0.575826 1.92512 81 46 6 
0.433995 0.670136 1.82118 40 19 2 
0.517228 0.519698 1.87002 163 117 65 
0.502702 0.473561 1.87798 88 63 32 
0.343432 0.623671 1.84312 53 31 10 
0.457865 0.457034 1.87462 151 109 51 
0.58222 0.344577 1.94628 72 40 0 
0.588061 0.481276 1.89517 186 149 96 
0.58923 0.478508 1.89616 163 120 67 
0.588011 0.465291 1.90087 72 49 8 
0.58025 0.651918 1.86091 187 132 102 
0.482683 0.425376 1.88719 150 104 52 
0.292474 0.591758 1.85506 33 15 1 
0.491986 0.663803 1.85263 154 82 34 
0.309314 0.669851 1.80443 129 68 11 
0.595048 0.474121 1.8999 180 131 75 
0.523576 0.312245 1.95027 45 26 9 
0.384923 0.259876 1.97492 109 67 9 
0.594746 0.475426 1.90012 178 135 82 
0.347895 0.642025 1.83226 155 95 43 
0.386133 0.256723 1.97687 107 66 10 
0.443633 0.6811 1.82077 209 160 117 
0.344335 0.617062 1.84627 50 28 7 
0.580961 0.659565 1.85612 72 33 4 
0.469576 0.477015 1.87161 156 110 61 
0.349505 0.685722 1.80554 203 138 106 
0.59545 0.470102 1.90193 178 128 65 
0.427031 0.7286 1.79276 50 25 3 
0.492086 0.469323 1.87533 64 40 14 
0.494719 0.478155 1.87293 147 111 59 
0.588258 0.589593 1.89876 67 39 15 
0.380114 0.244446 1.99007 116 66 7 
0.533241 0.632394 1.86506 142 67 9 
0.418734 0.529337 1.85468 46 29 9 
0.467832 0.316368 1.93662 29 16 7 
0.580641 0.460969 1.901 171 130 68 
0.417449 0.49089 1.86148 153 109 48 
0.54019 0.85169 1.80094 110 74 40 
0.316703 0.639938 1.82467 57 25 2 
0.543104 0.172876 2.02034 72 16 1 
0.486888 0.317208 1.93801 121 74 20 
0.594169 0.480126 1.89775 80 50 16 
0.515768 0.597986 1.88422 74 28 5 
0.538331 0.856904 1.79721 195 155 93 
0.562501 0.659094 1.85102 48 15 0 
0.500376 0.429674 1.89002 164 114 61 
0.565185 0.665447 1.8978 148 88 52 
0.292619 0.608483 1.84376 132 69 15 
0.567497 0.448239 1.89856 179 133 73 
0.569093 0.450971 1.89563 154 108 46 
0.338313 0.941974 1.69864 47 26 7 
0.334453 0.947864 1.68952 136 70 36 
0.516113 0.88326 1.77541 195 162 109 
0.325932 0.643023 1.82534 61 23 4 
0.339447 0.634849 1.83448 140 73 18 
0.567362 0.447045 1.90009 182 136 74 
0.533403 0.630294 1.86541 151 73 24 
0.515086 0.286639 1.95683 162 112 43 
0.432158 0.761585 1.77761 186 124 87 
0.567488 0.447068 1.89844 172 126 64 
0.354432 0.689932 1.80832 202 138 110 
0.540518 0.328553 1.94065 65 29 0 
0.504134 0.157551 2.02321 42 14 0 
0.481554 0.451762 1.87925 53 35 11 
0.41962 0.244343 1.97413 118 82 48 
0.321426 0.669032 1.80651 166 90 41 
0.313851 0.628593 1.83223 140 70 19 
0.324701 0.633129 1.83045 141 79 32 
0.442467 0.479617 1.86895 48 30 8 
0.429018 0.764732 1.77693 175 102 57 
0.600609 0.451409 1.91077 186 137 71 
0.523447 0.68716 1.82854 37 18 3 
0.491302 0.637584 1.86563 53 22 2 
0.349842 0.763221 1.80597 46 17 1 
0.540195 0.485797 1.88007 177 140 96 
0.394528 0.309599 1.94402 154 90 54 
0.296552 0.93415 1.69726 45 27 5 
0.267726 0.861533 1.74176 119 74 33 
0.382692 0.233339 1.99157 115 69 10 
0.569729 0.282829 1.96918 53 17 0 
0.363471 0.65414 1.83122 57 19 0 
0.594963 0.586784 1.9028 161 98 55 
0.260269 0.875708 1.73502 113 68 11 
0.308011 0.670113 1.80376 131 75 24 
0.382858 0.675083 1.82899 156 90 40 
0.570599 0.439934 1.90338 178 136 78 
0.510908 0.707808 1.82315 56 6 0 
0.523436 0.631931 1.86548 48 23 3 
0.294043 0.966547 1.66769 30 10 0 
0.312362 0.842303 1.74971 45 17 3 
0.395111 0.22528 1.99324 106 63 12 
0.581942 0.465173 1.8965 79 49 15 
0.506875 0.423732 1.89172 57 24 0 
0.364255 0.822999 1.73161 52 7 0 
0.36781 0.257615 1.98786 26 7 1 
0.444431 0.636225 1.82886 66 40 7 
0.316861 0.671115 1.80479 150 83 38 
0.546631 0.448249 1.89296 153 111 73 
0.330226 0.670439 1.80725 75 28 10 
0.378045 0.447754 1.87496 146 96 37 
0.496057 0.692172 1.8347 56 14 0 
0.466596 0.464165 1.87528 50 28 4 
0.529901 0.589608 1.88877 61 25 3 
0.35773 0.643133 1.83351 163 88 46 
0.571641 0.65058 1.8595 155 93 44 
0.597876 0.592264 1.90233 164 98 48 
0.507869 0.501872 1.8697 63 47 24 
0.490946 0.639507 1.86469 46 13 0 
0.322767 0.586479 1.86233 41 12 0 
0.37163 0.19319 2.02129 31 8 2 
0.314864 0.670947 1.80298 145 82 38 
0.485121 0.668567 1.84946 149 82 39 
0.496223 0.659032 1.8528 137 74 21 
0.298813 0.667638 1.80416 118 58 22 
0.578824 0.453736 1.89942 79 51 11 
0.485231 0.7017 1.8298 34 12 0 
0.585844 0.655433 1.86333 101 52 11 
0.629413 0.23985 2.01644 163 98 44 
0.309709 0.629617 1.83088 136 76 40 
0.532352 0.485316 1.87873 91 69 45 
0.334514 0.670467 1.80792 164 98 40 
0.380905 0.63122 1.84883 57 10 0 
0.491007 0.518147 1.8625 164 111 61 
0.318817 0.817852 1.7674 49 28 9 
0.298977 0.667859 1.80477 118 58 22 
0.46785 0.606333 1.85455 219 183 161 
0.376106 0.302648 1.95242 127 82 40 
0.419993 0.241443 1.97789 111 65 6 
0.542134 0.793011 1.8304 95 62 17 
0.475552 0.28475 1.95299 126 84 26 
0.349571 0.763577 1.80507 44 15 0 
0.548036 0.442322 1.89559 179 140 73 
0.440399 0.323085 1.93352 158 99 39 
0.293587 0.940729 1.69171 48 21 4 
0.297089 0.995979 1.637 41 18 4 
0.510953 0.496995 1.872 68 52 27 
0.593201 0.486737 1.89533 84 53 25 
0.483222 0.479794 1.87203 57 32 2 
0.334322 0.963693 1.6766 60 33 16 
0.350705 0.644446 1.83277 82 39 23 
0.46388 0.955803 1.71137 198 144 110 
0.354992 0.64477 1.83323 162 92 43 
0.399919 0.259658 1.97462 33 18 13 
0.440533 0.322368 1.93387 164 103 46 
0.281249 0.803382 1.78274 47 13 0 
0.348333 0.593636 1.86032 157 76 29 
0.407859 0.961473 1.68726 150 79 37 
0.499217 0.467665 1.87686 166 116 55 
0.426526 0.213926 1.99254 97 60 16 
0.391189 0.623293 1.85501 22 3 0 
0.575692 0.443863 1.90538 89 60 18 
0.317525 0.824475 1.76284 49 25 1 
0.375975 0.836249 1.70861 131 68 27 
0.586391 0.594609 1.89512 59 27 14 
0.509977 0.404874 1.90045 44 13 0 
0.512734 0.418774 1.89616 174 119 63 
0.267771 0.865441 1.74052 94 46 0 
0.279438 0.8094 1.77999 57 31 8 
0.420105 0.791267 1.75409 60 33 14 
0.620693 0.441922 1.92595 118 78 26 
0.604596 0.39243 1.9353 70 39 10 
0.429461 0.860248 1.68921 162 103 69 
0.489254 0.431914 1.88712 55 35 11 
0.383136 0.667988 1.8325 149 79 43 
0.349303 0.577439 1.87057 30 14 1 
0.589391 0.65289 1.86543 137 81 46 
0.347668 0.601447 1.85651 155 77 28 
0.541046 0.434228 1.89799 158 110 48 
0.565245 0.443332 1.90064 102 71 24 
0.370076 0.647741 1.81555 74 33 11 
0.361364 0.306855 1.95288 108 59 19 
0.251592 0.911797 1.7162 26 8 0 
0.38936 0.224126 1.99325 30 3 0 
0.442198 0.947007 1.71088 148 87 56 
0.600469 0.579488 1.90761 90 71 41 
0.361483 0.933225 1.70869 150 75 43 
0.589627 0.558838 1.91004 108 40 0 
0.323639 0.58675 1.86129 38 1 0 
0.309204 0.640479 1.82337 151 77 16 
0.519287 0.882903 1.7733 183 145 98 
0.293747 0.581235 1.86159 120 59 14 
0.559444 0.157835 2.03348 61 16 0 
0.455631 0.280745 1.9524 29 9 2 
0.378548 0.247828 1.98115 116 70 11 
0.342596 0.950653 1.68547 55 26 12 
0.303472 0.659155 1.80908 141 74 29 
0.351553 0.641456 1.83183 52 10 0 
0.57761 0.439729 1.90524 76 46 8 
0.563653 0.687848 1.83323 98 65 32 
0.594022 0.625502 1.88233 147 88 44 
0.497195 0.304057 1.94947 124 77 9 
0.551202 0.793757 1.83518 176 109 66 
0.574574 0.693248 1.83585 190 131 101 
0.543401 0.653356 1.8528 67 23 0 
0.52059 0.656775 1.84977 134 61 10 
0.375719 0.836546 1.70784 147 82 44 
0.508833 0.659976 1.84886 149 78 32 
0.291623 0.656256 1.81078 33 14 0 
0.266273 0.625924 1.837 118 50 11 
0.442549 0.96127 1.69934 80 53 24 
0.373711 0.654785 1.82197 151 79 39 
0.297072 0.552672 1.88064 39 11 0 
0.334168 0.962804 1.67502 55 28 9 
0.519727 0.627368 1.86881 146 74 26 
0.495056 0.836611 1.7875 98 78 54 
0.494035 0.31402 1.93908 41 19 5 
0.498239 0.266973 1.96741 131 86 31 
0.490164 0.78469 1.81719 189 121 82 
0.441677 0.424995 1.88533 132 90 40 
0.60057 0.566221 1.91276 102 68 41 
0.396099 0.493508 1.86071 54 32 18 
0.435903 0.452255 1.8747 53 30 12 
0.509745 0.670674 1.84416 125 61 23 
0.341578 0.674868 1.80658 175 96 63 
0.376314 0.659096 1.8349 88 46 24 
0.408182 0.822373 1.73074 150 73 19 
0.311496 0.830533 1.75948 134 67 22 
0.498186 0.666334 1.84881 131 67 39 
0.317406 0.822789 1.76371 42 19 1 
0.293464 0.5838 1.86039 135 87 39 
0.525264 0.700336 1.82351 132 74 37 
0.519531 0.414521 1.90055 166 115 52 
0.266913 0.856976 1.74558 40 17 0 
0.317451 0.968265 1.66425 30 0 0 
0.384144 0.3039 1.94958 102 59 24 
0.374876 0.268617 1.96692 113 64 21 
0.336059 0.675113 1.80679 181 104 74 
0.525024 0.671236 1.84059 132 64 15 
0.521813 0.693875 1.82625 40 21 6 
0.450372 0.206801 1.9979 111 57 21 
0.400238 0.260399 1.97421 22 5 0 
0.626385 0.582516 1.91806 99 60 29 
0.311835 0.672381 1.80277 68 24 0 
0.42614 0.225131 1.98865 34 16 6 
0.514327 0.432961 1.88978 161 113 65 
0.460901 0.472247 1.87208 64 44 20 
0.429444 0.42577 1.8835 114 69 30 
0.26038 0.879011 1.73265 113 74 19 
0.401416 0.471153 1.86682 82 55 28 
0.514225 0.41755 1.89394 172 119 53 
0.44023 0.948522 1.70933 150 81 48 
0.245908 0.630018 1.84863 116 48 9 
0.574776 0.663573 1.85212 149 83 48 
0.528098 0.654384 1.85266 56 29 10 
0.581432 0.195703 2.01861 145 84 30 
0.519342 0.66672 1.84551 129 62 19 
0.37648 0.268349 1.97229 113 64 21 
0.257581 0.62735 1.84181 128 64 29 
0.543856 0.850985 1.80268 186 144 86 
0.375528 0.836429 1.70726 142 76 41 
0.318052 0.616339 1.84215 158 85 32 
0.305666 0.927938 1.70219 131 71 35 
0.602942 0.588498 1.90603 181 112 47 
0.527447 0.604364 1.88233 73 38 6 
0.276595 0.867979 1.73722 110 54 3 
0.254674 0.977784 1.67745 41 22 5 
0.472161 0.423555 1.88823 163 106 63 
0.372845 0.711834 1.81707 155 81 42 
0.345998 0.644011 1.8309 68 22 0 
0.503706 0.931851 1.74553 177 144 91 
0.357564 0.245101 1.9908 106 55 8 
0.436126 0.199972 2.00132 30 10 1 
0.270884 0.532531 1.89293 27 0 0 
0.531476 0.790486 1.82817 110 72 51 
0.386406 0.269364 1.97003 120 63 18 
0.24544 0.564459 1.88219 131 66 28 
0.343749 0.954608 1.68245 116 60 23 
0.544801 0.53255 1.98749 50 31 1 
0.348574 0.583587 1.8653 113 56 27 
0.372642 0.178341 2.02848 96 35 7 
0.502551 0.482815 1.87547 70 53 33 
0.394612 0.233206 1.99027 109 65 18 
0.377909 0.71008 1.81294 165 91 52 
0.389513 0.685911 1.82625 96 44 7 
0.629326 0.568635 1.92042 112 48 2 
0.521818 0.88334 1.77416 172 140 79 
0.368473 0.648335 1.83533 172 103 62 
0.539955 0.443671 1.89554 75 54 33 
0.572319 0.687954 1.83684 88 57 29 
0.585905 0.477819 1.89567 86 61 20 
0.336494 0.934192 1.70305 57 33 9 
0.491717 0.433379 1.88636 53 31 10 
0.58516 0.191843 2.02163 74 9 0 
0.522832 0.860653 1.78605 193 155 108 
0.487139 0.666988 1.84876 133 62 18 
0.496398 0.43681 1.88536 162 120 60 
0.332831 0.970689 1.65971 143 69 22 
0.383413 0.669953 1.83223 156 87 54 
0.499849 0.448421 1.88203 187 139 77 
0.579596 0.188808 2.02128 94 26 0 
0.534397 0.300714 1.95342 107 81 44 
0.332451 0.973837 1.6596 155 84 42 
0.382453 0.265684 1.97177 42 14 2 
0.470726 0.749959 1.82057 170 99 53 
0.321115 0.92682 1.70101 148 80 35 
0.485416 0.695828 1.83448 45 20 0 
0.301692 0.775304 1.8041 46 8 0 
0.407556 0.472993 1.86677 55 33 9 
0.501932 0.421581 1.89217 158 107 44 
0.580199 0.70417 1.8549 131 86 45 
0.360239 0.654096 1.83046 186 111 72 
0.271647 0.85518 1.74578 113 68 27 
0.306938 0.920803 1.70906 144 80 42 
0.294346 0.65028 1.81552 113 56 13 
0.310288 0.981315 1.64837 50 14 0 
0.422914 0.541814 1.85106 141 82 40 
0.402339 0.222873 1.99141 32 12 1 
0.513944 0.462752 1.87509 75 56 23 
0.366587 0.643992 1.81528 94 48 22 
0.515784 0.701874 1.82516 130 69 24 
0.56982 0.43536 1.9054 91 57 11 
0.502418 0.434949 1.88588 97 60 5 
0.427341 0.895039 1.75632 66 31 1 
0.525171 0.676185 1.83699 139 75 27 
0.25935 0.841845 1.75706 111 68 23 
0.510804 0.397682 1.90388 44 13 0 
0.49963 0.83062 1.79278 173 115 78 
0.329562 0.636756 1.83158 50 24 0 
0.369747 0.65821 1.83076 156 85 39 
0.471601 0.460552 1.87639 94 74 39 
0.255455 0.989041 1.67251 128 64 29 
0.522006 0.696996 1.82676 45 20 0 
0.245574 0.56304 1.8829 132 65 22 
0.505553 0.663173 1.84921 140 73 30 
0.429913 0.518169 1.8574 126 86 34 
0.482141 0.676678 1.84537 134 60 21 
0.28815 0.815617 1.77406 126 66 29 
0.435019 0.423659 1.88393 55 27 6 
0.501656 0.526639 1.86431 168 122 62 
0.305195 0.662632 1.80713 133 78 22 
0.358562 0.653668 1.82872 175 99 47 
0.346499 0.648745 1.82615 176 95 48 
0.28873 0.613291 1.84042 118 65 21 
0.575161 0.677748 1.84288 68 31 2 
0.361136 0.671836 1.87516 168 88 39 
0.259167 0.626464 1.84517 131 64 22 
0.582888 0.644258 1.86645 157 105 57 
0.64334 0.492814 1.93122 193 136 83 
0.325969 0.584138 1.86142 133 69 25 
0.50318 0.485362 1.87394 67 51 25 
0.521877 0.698475 1.82445 49 22 3 
0.376475 0.824917 1.71774 122 61 17 
0.598414 0.605791 1.89492 49 24 4 
0.376629 0.486003 1.86102 30 15 0 
0.284983 0.775751 1.80284 45 14 0 
0.508244 0.660116 1.85137 134 61 18 
0.588529 0.580034 1.90333 172 120 81 
0.294029 0.983555 1.65448 119 54 14 
0.459035 0.24043 1.9765 104 63 33 
0.485545 0.655908 1.857 47 20 3 
0.492796 0.827368 1.79132 85 60 40 
0.545462 0.697952 1.82436 97 46 15 
0.451438 0.252284 1.96928 96 51 12 
0.315019 0.647004 1.789 174 101 50 
0.468573 0.714282 1.82839 38 2 0 
0.419136 0.253028 1.97236 123 83 34 
0.459525 0.948814 1.71484 90 44 29 
0.457047 0.330075 1.93588 30 14 1 
0.50757 0.669967 1.84544 125 65 29 
0.338105 0.968264 1.66443 136 71 29 
0.253437 0.956581 1.69025 111 49 12 
0.284794 0.648666 1.81764 138 71 28 
0.301717 0.639371 1.82354 74 27 0 
0.521054 0.667006 1.84305 139 70 29 
0.57491 0.64132 1.86567 161 92 53 
0.437167 0.972586 1.6838 99 70 36 
0.311072 0.838453 1.75409 51 22 6 
0.464969 0.967281 1.7031 190 142 106 
0.471884 0.696088 1.8378 53 22 4 
0.291565 0.948516 1.67845 125 59 11 
0.556245 0.439749 1.89678 173 126 70 
0.431531 0.21919 1.99284 35 15 4 
0.266325 0.535932 1.89177 81 43 20 
0.482368 0.483839 1.87175 111 78 35 
0.550931 0.253301 1.97882 36 17 3 
0.339291 0.638298 1.83127 155 79 27 
0.576555 0.292555 1.96955 158 102 19 
0.323163 0.618953 1.84 70 23 0 
0.630443 0.246858 2.01364 72 8 0 
0.43776 0.514466 1.85789 140 92 44 
0.401103 0.817883 1.73512 148 74 29 
0.615089 0.56963 1.91744 163 99 53 
0.405381 0.966774 1.67337 76 48 26 
0.345204 0.953272 1.68488 137 71 37 
0.520644 0.634973 1.86417 41 13 0 
0.575768 0.437663 1.90557 116 82 34 
0.461104 0.953303 1.71242 114 68 35 
0.293416 0.649186 1.81768 122 58 12 
0.538375 0.436299 1.89475 146 100 48 
0.364729 0.48866 1.86354 53 22 1 
0.429102 0.265274 1.96407 29 14 7 
0.582846 0.63336 1.872 69 35 8 
0.462026 0.959072 1.7074 138 87 60 
0.593383 0.493351 1.89391 192 146 94 
0.495969 0.448115 1.88196 161 115 65 
0.306617 0.922765 1.70674 141 77 42 
0.313394 0.668691 1.80436 54 10 0 
0.340861 0.592562 1.85841 149 72 26 
0.583197 0.700956 1.85112 124 74 41 
0.506698 0.393522 1.90435 140 87 21 
0.234239 0.923829 1.71004 64 27 1 
0.282889 0.81141 1.77774 43 21 0 
0.552344 0.515598 1.87541 140 117 85 
0.462192 0.466003 1.8726 51 26 0 
0.574762 0.65579 1.87957 66 34 11 
0.431649 0.950213 1.70511 84 52 27 
0.355394 0.312955 1.95166 116 66 31 
0.500679 0.831149 1.79359 167 108 68 
0.490186 0.455549 1.8777 61 40 21 
0.330768 0.949813 1.68655 126 62 26 
0.361349 0.482887 1.86395 55 25 1 
0.306846 0.922456 1.70761 138 74 39 
0.310958 0.846174 1.74729 86 42 13 
0.356193 0.628882 1.84253 167 95 55 
0.580877 0.597188 1.89393 149 92 49 
0.437906 0.51635 1.85843 138 91 45 
0.57257 0.686743 1.83658 85 50 22 
0.492137 0.790924 1.81443 95 60 32 
0.606714 0.569822 1.91334 101 72 56 
0.368614 0.459069 1.87048 74 40 5 
0.350579 0.562268 1.87791 27 0 0 
0.589171 0.483941 1.89399 175 135 76 
0.552689 0.678734 1.83499 147 80 37 
0.394249 0.263255 1.97473 29 10 6 
0.459148 0.23246 1.9805 36 16 7 
0.58654 0.611634 1.88682 131 74 29 
0.395249 0.814843 1.72838 140 70 21 
0.561209 0.674221 1.83813 125 72 38 
0.485508 0.807307 1.80254 180 115 73 
0.324451 0.54004 1.8859 41 13 2 
0.295381 0.927199 1.70306 106 53 21 
0.301039 0.678377 1.79857 153 87 37 
0.380937 0.493896 1.86001 34 13 0 
0.576448 0.631103 1.87239 157 91 59 
0.606717 0.564943 1.91622 161 103 55 
0.320771 0.649774 1.81763 45 5 0 
0.331598 0.950276 1.68476 113 52 21 
0.368844 0.659738 1.83022 156 85 39 
0.485821 0.639992 1.86318 141 65 29 
0.467886 0.713857 1.82963 40 4 0 
0.457083 0.47496 1.87333 72 52 25 
0.570571 0.465178 1.89436 108 68 42 
0.508141 0.453563 1.88037 104 78 45 
0.32775 0.624265 1.83735 162 94 49 
0.387311 0.24972 1.98029 53 22 0 
0.454302 0.246558 1.97305 40 16 4 
0.607207 0.582682 1.90973 99 73 50 
0.608483 0.553336 1.91113 98 31 0 
0.369703 0.833161 1.71317 124 56 17 
0.565563 0.78604 1.84459 190 126 80 
0.413902 0.245049 1.98059 45 11 0 
0.325758 0.550445 1.88207 65 26 11 
0.597457 0.201186 2.02627 147 79 16 
0.486707 0.475382 1.87319 68 40 19 
0.611911 0.426518 1.92586 176 140 104 
0.340289 0.932574 1.70511 146 81 49 
0.288041 0.644086 1.82165 116 51 9 
0.325921 0.596827 1.85432 151 80 26 
0.605595 0.631236 1.88692 172 110 59 
0.344984 0.649277 1.82616 164 82 42 
0.557815 0.67518 1.83932 46 15 0 
0.332122 0.581264 1.86563 123 57 9 
0.455261 0.47369 1.86918 59 38 11 
0.553409 0.522313 1.87519 82 62 38 
0.536589 0.618803 1.87768 151 72 13 
0.405653 0.973473 1.67111 77 42 20 
0.568948 0.184684 2.0234 149 79 19 
0.563965 0.454328 1.89441 173 126 70 
0.564582 0.786169 1.84589 185 121 77 
0.554611 0.836079 1.81644 205 156 116 
0.421457 0.448274 1.87426 116 79 35 
0.521509 0.880404 1.77524 107 78 36 
0.427121 0.464075 1.87025 70 46 12 
0.437351 0.496476 1.86262 153 109 48 
0.614192 0.409827 1.93412 63 37 20 
0.294325 0.990869 1.64606 103 40 5 
0.379484 0.259005 1.97557 30 8 0 
0.564351 0.655407 1.85466 128 76 37 
0.299686 0.77679 1.80217 120 72 34 
0.30393 0.671114 1.80243 64 22 0 
0.490633 0.774608 1.81951 153 86 44 
0.453768 0.218607 1.98795 27 4 0 
0.337396 0.652669 1.8245 151 77 32 
0.306504 0.830296 1.7598 131 64 19 
0.25374 0.944502 1.69684 31 11 0 
0.634902 0.247502 2.01547 170 106 58 
0.587532 0.199996 2.01725 151 87 25 
0.361063 0.6381 1.79155 70 25 6 
0.379325 0.619203 1.85378 121 54 11 
0.589952 0.562789 1.91177 154 91 58 
0.339807 0.563514 1.87391 130 58 18 
0.588514 0.185818 2.02599 128 59 17 
0.494565 0.437167 1.88574 137 96 30 
0.459149 0.438913 1.79613 50 33 7 
0.552167 0.445905 1.89122 169 123 64 
0.591749 0.262596 1.98843 148 78 29 
0.513765 0.637186 1.86418 66 18 0 
0.544254 0.699052 1.82508 84 33 4 
0.584836 0.448336 1.9037 170 130 78 
0.517844 0.631083 1.86589 131 62 20 
0.501554 0.518345 1.86719 174 127 59 
0.361002 0.48993 1.86135 50 20 0 
0.4793 0.947223 1.7222 117 86 68 
0.498771 0.672429 1.84523 122 55 13 
0.357361 0.656151 1.82848 163 92 40 
0.446533 0.54624 1.8521 160 110 41 
0.322404 0.658945 1.81135 160 84 26 
0.427131 0.948491 1.70618 125 76 36 
0.631902 0.356517 1.95945 183 134 58 
0.454251 0.607947 1.83982 180 110 84 
0.51228 0.444842 1.88426 128 101 71 
0.447376 0.256961 1.96795 29 10 4 
0.321528 0.54862 1.88367 63 22 2 
0.615868 0.403706 1.93774 63 42 15 
0.484756 0.643022 1.86052 141 65 29 
0.332127 0.924798 1.70958 140 68 30 
0.490023 0.832957 1.78784 86 52 24 
0.291107 0.957668 1.67675 119 45 16 
0.309429 0.680011 1.7994 142 79 26 
0.266316 0.898871 1.71841 62 23 6 
0.465711 0.167878 2.01769 135 69 35 
0.392747 0.631817 1.85257 32 7 3 
0.551055 0.177156 2.02293 144 76 29 
0.400286 0.251475 1.97702 30 13 5 
0.568567 0.1843 2.02451 147 77 17 
0.372643 0.63808 1.84417 68 23 0 
0.27785 0.577226 1.86559 138 77 22 
0.453152 0.943366 1.71668 182 113 80 
0.277919 0.625403 1.83512 121 57 21 
0.461497 0.735371 1.81792 175 98 52 
0.395257 0.969695 1.68001 94 41 10 
0.328409 0.542937 1.88615 96 42 18 
0.570431 0.464529 1.89399 102 62 36 
0.507058 0.400293 1.90307 161 109 49 
0.520849 0.640748 1.8617 128 64 20 
0.370436 0.496099 1.85952 127 78 22 
0.504577 0.440843 1.88438 79 51 14 
0.461059 0.691713 1.82852 164 89 50 
0.377545 0.625666 1.85014 145 76 19 
0.50433 0.441291 1.88578 96 70 33 
0.574763 0.4344 1.90699 183 141 93 
0.493157 0.683102 1.83921 123 55 16 
0.488863 0.858094 1.77112 118 90 66 
0.546141 0.81302 1.82151 211 170 138 
0.555606 0.445443 1.89711 167 121 62 
0.287207 0.535747 1.88634 126 58 21 
0.500461 0.70378 1.82731 119 52 7 
0.27531 0.872755 1.73505 104 51 7 
0.406777 0.239499 1.98157 112 66 16 
0.501146 0.448029 1.88337 183 135 69 
0.414419 0.464332 1.87022 128 90 43 
0.439156 0.232635 1.98198 92 59 28 
0.449498 0.465695 1.8726 61 39 16 
0.557973 0.719029 1.82368 194 139 109 
0.340341 0.643101 1.83094 118 70 34 
0.497841 0.673994 1.84475 111 48 5 
0.367571 0.971319 1.66844 187 124 93 
0.410082 0.250467 1.97316 100 58 0 
0.446233 0.544645 1.85449 165 109 52 
0.297108 0.820768 1.77065 133 76 31 
0.541439 0.848045 1.80406 156 113 78 
0.484015 0.654964 1.85808 39 2 0 
0.448599 0.428683 1.88393 75 36 0 
0.612268 0.614657 1.89819 182 115 63 
0.565982 0.678671 1.83894 55 21 0 
0.400254 0.812084 1.73266 133 70 27 
0.45041 0.3301 1.93137 32 15 5 
0.42464 0.313491 1.93806 139 66 23 
0.484093 0.475085 1.87342 83 61 38 
0.330827 0.548504 1.88218 43 14 8 
0.612177 0.615221 1.89706 176 112 66 
0.465454 0.424485 1.88898 147 97 48 
0.410841 0.4294 1.88233 123 73 24 
0.559792 0.419282 1.85342 166 118 69 
0.274341 0.8765 1.73408 110 51 7 
0.373815 0.312893 1.94309 99 54 12 
0.427432 0.316707 1.93278 149 77 27 
0.599505 0.396282 1.93146 184 136 60 
0.382194 0.635641 1.84319 139 67 19 
0.500572 0.668845 1.84806 69 23 0 
0.502509 0.822264 1.79939 179 106 74 
0.500523 0.518848 1.86651 162 118 53 
0.410735 0.473401 1.86582 61 41 17 
0.446791 0.964207 1.69749 108 67 37 
0.443844 0.256457 1.96826 32 15 5 
0.537299 0.654429 1.85175 131 60 16 
0.29736 0.896992 1.72287 33 10 2 
0.517245 0.694539 1.82705 38 17 0 
0.575985 0.432108 1.90613 156 115 59 
0.602458 0.607198 1.89529 161 102 58 
0.440598 0.47078 1.87018 98 74 38 
0.425894 0.96698 1.68525 71 42 12 
0.291329 0.646848 1.81688 130 66 18 
0.332322 0.645253 1.82532 145 70 30 
0.532356 0.593781 1.88615 159 86 33 
0.342588 0.933927 1.70458 70 26 0 
0.291084 0.843106 1.75241 108 61 19 
0.518678 0.633384 1.86506 135 68 16 
0.290955 0.846492 1.74927 50 24 1 
0.265099 0.920954 1.70692 137 70 28 
0.609429 0.41325 1.93492 180 138 66 
0.590653 0.575286 1.90668 166 110 75 
0.375832 0.829885 1.71466 84 30 2 
0.364224 0.315592 1.94735 93 45 7 
0.441167 0.225771 1.98574 83 54 22 
0.581869 0.639941 1.86866 93 54 25 
0.388739 0.250989 1.977 107 64 19 
0.416603 0.515726 1.85756 130 86 37 
0.41479 0.754375 1.77707 40 19 2 
0.370005 0.956226 1.68526 141 83 45 
0.503508 0.837043 1.79132 102 77 55 
0.322643 0.637691 1.82706 110 61 18 
0.511067 0.634106 1.86619 142 70 22 
0.629599 0.218217 2.02916 135 73 22 
0.488343 0.775124 1.81936 173 97 61 
0.502503 0.824296 1.79744 175 106 67 
0.390177 0.658054 1.84049 121 57 19 
0.378404 0.623238 1.85195 136 68 19 
0.591797 0.638607 1.87421 74 48 23 
0.497937 0.514089 1.86683 91 66 25 
0.614623 0.541851 1.90711 111 50 0 
0.294745 0.662821 1.8071 52 30 9 
0.444045 0.973433 1.68643 149 84 54 
0.611452 0.620066 1.89541 161 108 64 
0.297576 0.893853 1.72371 35 15 4 
0.585711 0.637235 1.87158 143 84 44 
0.274063 0.877243 1.73303 111 54 9 
0.553641 0.810786 1.82712 177 121 84 
0.480691 0.487956 1.86933 110 57 17 
0.587723 0.674145 1.85305 173 105 60 
0.391026 0.237022 1.98781 42 9 0 
0.473506 0.711053 1.83064 117 49 12 
0.554136 0.449152 1.89336 166 121 62 
0.294592 0.562066 1.87399 111 49 8 
0.496977 0.675497 1.84346 129 64 22 
0.510254 0.256128 1.97647 28 14 1 
0.532915 0.433817 1.89268 112 81 35 
0.449164 0.337125 1.92508 153 84 42 
0.585831 0.637026 1.87081 131 76 35 
0.327804 0.491288 1.86827 139 75 14 
0.322675 0.663886 1.80961 174 99 42 
0.556976 0.65009 1.8572 145 78 23 
0.481268 0.845894 1.77425 198 135 92 
0.345703 0.934138 1.70443 158 83 51 
0.507281 0.832111 1.79636 100 60 34 
0.402744 0.975886 1.66871 145 82 49 
0.365136 0.976338 1.66505 149 81 44 
0.489302 0.526042 1.86439 151 74 46 
0.475463 0.939228 1.7261 93 69 41 
0.346239 0.681198 1.80844 184 113 67 
0.284685 0.635995 1.82458 123 61 14 
0.61379 0.613325 1.89901 175 105 53 
0.305604 0.650075 1.81696 142 72 21 
0.624495 0.587263 1.91625 121 80 52 
0.475399 0.700466 1.83492 123 55 16 
0.569961 0.67781 1.84228 147 84 41 
0.533559 0.594619 1.8852 162 86 37 
0.400617 0.310928 1.94294 73 16 5 
0.535775 0.174859 2.03013 148 80 31 
0.525795 0.596212 1.88514 160 93 51 
0.396496 0.946872 1.70291 137 73 35 
0.478269 0.927549 1.73444 168 112 79 
0.551489 0.434455 1.89761 152 112 53 
0.478994 0.472057 1.8743 126 95 38 
0.387167 0.62825 1.85191 103 46 19 
0.260618 0.855894 1.74774 100 58 16 
0.309723 0.680598 1.79908 136 73 22 
0.503305 0.786409 1.82728 157 94 51 
0.440643 0.225803 1.98666 93 61 22 
0.556652 0.646773 1.85862 149 82 30 
0.580844 0.569553 1.90569 116 67 34 
0.387787 0.306004 1.94705 43 11 0 
0.362435 0.641519 1.83788 72 31 3 
0.345094 0.768637 1.8012 100 49 18 
0.45741 0.724335 1.81917 174 105 63 
0.422175 0.758707 1.77406 160 88 38 
0.602569 0.401361 1.93127 76 42 14 
0.270514 0.89039 1.72624 121 59 10 
0.553314 0.586377 1.895 166 94 44 
0.341919 0.924167 1.71046 82 25 5 
0.461197 0.693074 1.83318 189 113 64 
0.528655 0.601879 1.88242 67 27 1 
0.391536 0.664091 1.84012 103 52 25 
0.481567 0.831814 1.78196 200 134 84 
0.511031 0.634269 1.86611 142 70 22 
0.451734 0.710986 1.81373 145 74 42 
0.321016 0.907038 1.71384 82 34 14 
0.372878 0.47978 1.86256 114 75 34 
0.603937 0.569871 1.91139 104 77 56 
0.592712 0.56613 1.91324 131 80 49 
0.383122 0.697662 1.81429 88 43 10 
0.435043 0.240112 1.97767 98 65 14 
0.507895 0.876352 1.76846 147 113 86 
0.607262 0.401787 1.93373 185 138 66 
0.530046 0.437587 1.89331 107 75 34 
0.526278 0.796389 1.82157 113 68 39 
0.566 0.463958 1.91489 152 111 55 
0.317564 0.92477 1.70562 150 78 38 
0.305583 0.666518 1.80443 72 31 9 
0.30057 0.659359 1.80796 138 78 24 
0.4581 0.578784 1.85459 175 121 59 
0.42823 0.676519 1.81735 47 18 4 
0.552678 0.644238 1.86103 140 81 25 
0.276376 0.583222 1.8628 142 75 20 
0.455568 0.423241 1.88627 136 85 40 
0.45368 0.231246 1.98245 38 18 7 
0.503063 0.811907 1.80577 181 109 69 
0.333459 0.621212 1.84013 148 76 26 
0.661406 0.361775 1.99307 194 144 73 
0.374754 0.466619 1.86784 121 81 29 
0.434765 0.472716 1.87228 94 70 36 
0.347495 0.613771 1.84805 56 21 0 
0.594447 0.573038 1.91112 161 110 79 
0.485372 0.680715 1.84588 121 52 11 
0.271119 0.553992 1.87928 105 46 12 
0.315401 0.853353 1.73275 116 46 10 
0.348633 0.68693 1.81042 186 120 72 
0.506144 0.255555 1.97164 29 12 0 
0.482371 0.429517 1.88517 138 96 48 
0.489272 0.836071 1.78486 97 52 19 
0.319358 0.579396 1.86747 125 66 22 
0.424227 0.462273 1.87116 59 34 14 
0.574006 0.610935 1.88359 147 82 52 
0.626848 0.593602 1.91623 165 111 73 
0.281538 0.847056 1.75049 114 61 17 
0.453058 0.333833 1.92728 43 12 0 
0.331187 0.963432 1.66987 50 27 11 
0.641175 0.45459 1.94054 129 66 22 
0.426911 0.682712 1.81451 119 48 0 
0.612921 0.40143 1.93618 71 45 18 
0.293415 0.79195 1.79254 127 64 20 
0.480855 0.423696 1.88861 157 103 59 
0.396891 0.444903 1.87475 112 71 25 
0.397232 0.445226 1.87453 108 68 16 
0.521481 0.603102 1.88074 155 82 41 
0.462327 0.168728 2.01728 58 8 0 
0.479395 0.159548 2.02464 126 62 26 
0.48939 0.477619 1.87421 118 92 59 
0.560648 0.420247 1.90775 175 127 61 
0.406372 0.241154 1.9825 118 73 32 
0.518626 0.675086 1.83961 108 50 10 
0.514351 0.630651 1.86678 54 15 0 
0.49397 0.804322 1.80534 176 102 57 
0.292788 0.7924 1.79018 131 69 22 
0.482121 0.637749 1.86264 156 82 47 
0.386944 0.631472 1.85109 123 58 18 
0.396327 0.946735 1.70445 125 62 31 
0.511084 0.482823 1.87556 140 113 84 
0.501292 0.792465 1.824 178 107 63 
0.463499 0.733106 1.81921 159 87 39 
0.326591 0.652377 1.81832 145 74 32 
0.433412 0.957099 1.69928 151 81 47 
0.264034 0.840776 1.75695 118 66 27 
0.51631 0.82844 1.8006 190 126 91 
0.559332 0.417078 1.90839 169 119 58 
0.44155 0.807455 1.75033 182 115 63 
0.527176 0.596213 1.80654 153 85 40 
0.474588 0.452705 1.87722 50 32 8 
0.596699 0.622546 1.88514 148 97 52 
0.50232 0.263982 1.96768 122 80 30 
0.316528 0.94557 1.68902 61 15 0 
0.355892 0.478106 1.86653 84 52 14 
0.5388 0.59009 1.88875 166 89 47 
0.466843 0.764538 1.81175 157 75 27 
0.433716 0.520096 1.85844 60 33 12 
0.499619 0.787859 1.82246 183 109 74 
0.570571 0.679763 1.84001 163 98 60 
